# .PCD v0.7 - Point Cloud Data file format
VERSION 0.7
FIELDS x y z
SIZE 4 4 4
TYPE F F F
COUNT 1 1 1
WIDTH 1219
HEIGHT 1
VIEWPOINT 0 0 0 1 0 0 0
POINTS 1219
DATA ascii
0.020533841 0.018913886 -0.0075000008
0.041512731 0.018562185 -0.0075000008
0.043745786 0.018796979 -0.0075000008
0.048422873 0.018731704 -0.0075000008
0.048763316 0.018723704 -0.0075000008
-0.04978922 0.019422898 -0.0075000008
-0.047859468 0.019433539 -0.0075000008
-0.040046647 0.019380728 -0.0075000008
-0.039627634 0.019240202 -0.0075000008
-0.038626168 0.019208753 -0.0075000008
-0.032426331 0.019301452 -0.0075000008
-0.031621218 0.019269615 -0.0075000008
-0.028365169 0.019449653 -0.0075000008
-0.020156264 0.019046212 -0.0075000008
-0.018334756 0.019214289 -0.0075000008
-0.010834418 0.019037677 -0.0075000008
-0.0052485336 0.019116543 -0.0075000008
-0.0046261176 0.019172492 -0.0075000008
0.0055009127 0.019283921 -0.0075000008
0.01678049 0.019142408 -0.0075000008
0.021308076 0.019349456 -0.0075000008
0.027817251 0.019319646 -0.0075000008
0.028159909 0.019284021 -0.0075000008
0.03300935 0.019168114 -0.0075000008
0.034816403 0.019404899 -0.0075000008
0.038234141 0.019078206 -0.0075000008
0.042675529 0.019016061 -0.0075000008
-0.049711853 0.0196061 -0.0075000008
-0.041831989 0.019748176 -0.0075000008
-0.035412263 0.019759411 -0.0075000008
-0.032926887 0.019567389 -0.0075000008
-0.030577408 0.01957396 -0.0075000008
-0.024447963 0.019716697 -0.0075000008
-0.020282805 0.019930637 -0.0075000008
-0.012089632 0.019713534 -0.0075000008
-0.0091802236 0.019606283 -0.0075000008
0.014878206 0.019543907 -0.0075000008
0.01702174 0.019939698 -0.0075000008
0.030421805 0.019832794 -0.0075000008
0.03432193 0.019820679 -0.0075000008
0.038958538 0.01977556 -0.0075000008
0.040365908 0.019501362 -0.0075000008
0.044220004 0.019891199 -0.0075000008
0.049227804 0.019535225 -0.0075000008
-0.046318531 0.02013427 -0.0075000008
-0.042644683 0.020070205 -0.0075000008
-0.042007662 0.020094709 -0.0075000008
-0.040780798 0.020157205 -0.0075000008
-0.033384785 0.020459492 -0.0075000008
-0.032018822 0.020090425 -0.0075000008
-0.031406805 0.020044254 -0.0075000008
-0.030222926 0.020229453 -0.0075000008
-0.029315123 0.02006912 -0.0075000008
-0.018605828 0.020246621 -0.0075000008
-0.0067113861 0.020470448 -0.0075000008
0.0044587161 0.020015664 -0.0075000008
0.015515568 0.020480623 -0.0075000008
0.01807707 0.020159161 -0.0075000008
0.029003326 0.020276979 -0.0075000008
0.030624155 0.020403598 -0.0075000008
0.033303857 0.020138498 -0.0075000008
0.034951877 0.020022703 -0.0075000008
0.035316233 0.020484708 -0.0075000008
0.044317137 0.020366479 -0.0075000008
0.046463676 0.020257035 -0.0075000008
-0.047583781 0.02050359 -0.0075000008
-0.041670293 0.020765642 -0.0075000008
-0.039755207 0.020744283 -0.0075000008
-0.036286626 0.020592451 -0.0075000008
-0.035659444 0.020932727 -0.0075000008
-0.034624282 0.020977145 -0.0075000008
-0.03076515 0.02059266 -0.0075000008
-0.025419815 0.020914838 -0.0075000008
-0.024479542 0.020734459 -0.0075000008
-0.015796755 0.020846229 -0.0075000008
-0.015071699 0.020764869 -0.0075000008
-0.011307059 0.020517053 -0.0075000008
-0.010799384 0.020930862 -0.0075000008
-0.0074050296 0.020890066 -0.0075000008
-0.0056556333 0.020712685 -0.0075000008
-0.0034723375 0.020714303 -0.0075000008
0.0056378469 0.020676009 -0.0075000008
0.011192419 0.020940006 -0.0075000008
0.01840426 0.020620313 -0.0075000008
0.020842299 0.020803347 -0.0075000008
0.024198027 0.020581946 -0.0075000008
0.029789183 0.020818895 -0.0075000008
0.032326728 0.020967651 -0.0075000008
0.032751292 0.020723052 -0.0075000008
0.034541573 0.020548243 -0.0075000008
0.037613351 0.020892005 -0.0075000008
0.038152877 0.020625524 -0.0075000008
0.040277917 0.020922706 -0.0075000008
0.046096396 0.020940378 -0.0075000008
0.049734749 0.020900287 -0.0075000008
-0.046594538 0.02133351 -0.0075000008
-0.044416159 0.02109166 -0.0075000008
-0.042709887 0.02124083 -0.0075000008
-0.040012836 0.021423601 -0.0075000008
-0.039184332 0.021039099 -0.0075000008
-0.038774569 0.021460062 -0.0075000008
-0.029192779 0.021460233 -0.0075000008
-0.020341801 0.021430872 -0.0075000008
-0.011685407 0.021374445 -0.0075000008
-0.0093461834 0.02124599 -0.0075000008
-0.0083064064 0.021339625 -0.0075000008
0.011542417 0.021239907 -0.0075000008
0.028076652 0.021473197 -0.0075000008
0.028988035 0.021042597 -0.0075000008
0.033093244 0.021431612 -0.0075000008
0.04351924 0.021338414 -0.0075000008
0.044945035 0.021332042 -0.0075000008
0.046171986 0.021367891 -0.0075000008
-0.046220284 0.02182853 -0.0075000008
-0.044751748 0.021735338 -0.0075000008
-0.044322547 0.021806708 -0.0075000008
-0.040910315 0.021745764 -0.0075000008
-0.040113091 0.021965276 -0.0075000008
-0.033494912 0.021765338 -0.0075000008
-0.031788278 0.021716027 -0.0075000008
-0.028444026 0.021795023 -0.0075000008
-0.019406604 0.021799672 -0.0075000008
-0.0075297449 0.021535883 -0.0075000008
-0.0040251501 0.021725778 -0.0075000008
0.023012044 0.021896005 -0.0075000008
0.025207702 0.021668902 -0.0075000008
0.028714713 0.021989483 -0.0075000008
0.031800132 0.021714976 -0.0075000008
0.046608511 0.021616943 -0.0075000008
0.047281597 0.021677682 -0.0075000008
0.048660748 0.02195207 -0.0075000008
-0.046276268 0.022157704 -0.0075000008
-0.03490011 0.02203344 -0.0075000008
-0.03285595 0.022305833 -0.0075000008
-0.031886488 0.022001745 -0.0075000008
-0.026276946 0.022044163 -0.0075000008
-0.024759412 0.022306787 -0.0075000008
-0.022097599 0.022150226 -0.0075000008
-0.019604038 0.022099845 -0.0075000008
-0.0063975807 0.022332307 -0.0075000008
-0.0036839116 0.0223126 -0.0075000008
0.0073572882 0.022319112 -0.0075000008
0.012354873 0.02229565 -0.0075000008
0.01326384 0.022422384 -0.0075000008
0.013697613 0.022406181 -0.0075000008
0.016969576 0.022312455 -0.0075000008
0.036719784 0.022081964 -0.0075000008
0.038434926 0.022471597 -0.0075000008
0.038621366 0.022060435 -0.0075000008
0.044089291 0.02245133 -0.0075000008
0.044800181 0.02221234 -0.0075000008
0.049229402 0.022276979 -0.0075000008
0.049819093 0.022152513 -0.0075000008
-0.047628783 0.022520319 -0.0075000008
-0.046384234 0.022631856 -0.0075000008
-0.042332791 0.022881826 -0.0075000008
-0.03929938 0.022617716 -0.0075000008
-0.033850167 0.022644797 -0.0075000008
-0.026940618 0.022733757 -0.0075000008
-0.023020707 0.02296352 -0.0075000008
-0.021727012 0.022502873 -0.0075000008
-0.016138026 0.022874685 -0.0075000008
-0.013578746 0.022639738 -0.0075000008
-0.013073069 0.022734024 -0.0075000008
-0.0031905398 0.022810392 -0.0075000008
0.0090230908 0.022869471 -0.0075000008
0.016130811 0.022752116 -0.0075000008
0.020219417 0.022753391 -0.0075000008
0.025186293 0.02299053 -0.0075000008
0.02697663 0.022756748 -0.0075000008
0.027679518 0.0225506 -0.0075000008
0.028198104 0.022988334 -0.0075000008
0.034899864 0.022862999 -0.0075000008
0.035290651 0.022674851 -0.0075000008
0.035627864 0.022649838 -0.0075000008
0.037313383 0.02250834 -0.0075000008
0.042870138 0.022737483 -0.0075000008
0.04874507 0.022515614 -0.0075000008
0.049554612 0.022541983 -0.0075000008
-0.046835352 0.023179473 -0.0075000008
-0.044752289 0.02348461 -0.0075000008
-0.034825884 0.02340146 -0.0075000008
-0.034033418 0.023447173 -0.0075000008
-0.021929227 0.023118153 -0.0075000008
-0.019862877 0.023406409 -0.0075000008
0.0041244924 0.02330669 -0.0075000008
0.019342441 0.023450805 -0.0075000008
0.026676359 0.023076173 -0.0075000008
0.036665101 0.023277216 -0.0075000008
-0.045685116 0.023822978 -0.0075000008
-0.045145951 0.023639837 -0.0075000008
-0.041840468 0.023754058 -0.0075000008
-0.041232366 0.023555957 -0.0075000008
-0.040368218 0.023883572 -0.0075000008
-0.038043808 0.023898756 -0.0075000008
-0.037024699 0.023600614 -0.0075000008
-0.034483623 0.02392726 -0.0075000008
-0.017274844 0.023717284 -0.0075000008
-0.014018178 0.023956835 -0.0075000008
-0.011826669 0.023777172 -0.0075000008
-0.011014102 0.023796268 -0.0075000008
0.0095176492 0.023653688 -0.0075000008
0.010746401 0.023926236 -0.0075000008
0.016037529 0.023557425 -0.0075000008
0.034952808 0.023802733 -0.0075000008
0.036541868 0.023581427 -0.0075000008
0.03996364 0.023928558 -0.0075000008
0.047884062 0.023979593 -0.0075000008
0.049748477 0.023763809 -0.0075000008
-0.04822487 0.024066329 -0.0075000008
-0.04500803 0.024466597 -0.0075000008
-0.044267286 0.024136467 -0.0075000008
-0.042362027 0.024343289 -0.0075000008
-0.041627813 0.024188086 -0.0075000008
-0.038218159 0.024269082 -0.0075000008
-0.027940217 0.024059944 -0.0075000008
-0.02726981 0.024114603 -0.0075000008
-0.024059653 0.024192069 -0.0075000008
-0.013379538 0.024201676 -0.0075000008
-0.0091233123 0.024440769 -0.0075000008
0.0075924117 0.024384696 -0.0075000008
0.0088582896 0.024104889 -0.0075000008
0.022771381 0.024419056 -0.0075000008
0.03105152 0.024102109 -0.0075000008
0.032607649 0.024006277 -0.0075000008
0.034734908 0.024093127 -0.0075000008
0.039675444 0.024112813 -0.0075000008
0.040627398 0.024145722 -0.0075000008
0.042380907 0.02409775 -0.0075000008
0.043677915 0.024237925 -0.0075000008
0.045122359 0.024097688 -0.0075000008
0.04563928 0.024109581 -0.0075000008
0.046786916 0.024182137 -0.0075000008
-0.049929366 0.024746099 -0.0075000008
-0.048989017 0.024655208 -0.0075000008
-0.048294615 0.024828214 -0.0075000008
-0.042304505 0.024926988 -0.0075000008
-0.03810953 0.02498739 -0.0075000008
-0.037501682 0.024846612 -0.0075000008
-0.018739626 0.024633424 -0.0075000008
-0.018106639 0.024631806 -0.0075000008
-0.012007212 0.024935246 -0.0075000008
-0.0086329039 0.024959449 -0.0075000008
0.015267426 0.024518602 -0.0075000008
0.018762235 0.024874965 -0.0075000008
0.023008313 0.02494623 -0.0075000008
0.026132487 0.024579933 -0.0075000008
0.040274754 0.02457609 -0.0075000008
0.040572178 0.024693716 -0.0075000008
0.041020844 0.024650509 -0.0075000008
-0.049802672 -0.024873378 -0.0073948768
-0.04922922 -0.024832882 -0.0074427114
-0.048678264 -0.024832897 -0.0074070268
-0.048111092 -0.024910025 -0.0074379439
-0.04756929 -0.025000002 -0.007263869
-0.047224648 -0.024949333 -0.007298707
-0.046800073 -0.02484167 -0.0073979222
-0.046193633 -0.024767181 -0.0075000003
-0.045663461 -0.024981638 -0.0073177991
-0.045319863 -0.024654321 -0.0074608522
-0.04471891 -0.024756527 -0.0074440748
-0.04415375 -0.024876034 -0.0073661837
-0.043747351 -0.024800677 -0.0074186325
-0.043317921 -0.024944648 -0.0073207603
-0.042758118 -0.024953319 -0.007272711
-0.042190377 -0.024713902 -0.0075000003
-0.041864708 -0.024594696 -0.0075000003
-0.041265532 -0.024921855 -0.0073922118
-0.040758658 -0.024807645 -0.0074371453
-0.04025425 -0.024997851 -0.0072818771
-0.03962297 -0.024724508 -0.0075000003
-0.039114058 -0.024640964 -0.0075000003
-0.038367495 -0.024825569 -0.0074289362
-0.037225671 -0.024563022 -0.0075000003
-0.036784705 -0.024883606 -0.0074413256
-0.03611052 -0.025 -0.0070654815
-0.035781596 -0.024912754 -0.0073817642
-0.035227485 -0.024902575 -0.0074172444
-0.034880992 -0.024866544 -0.0074004568
-0.034465287 -0.024910087 -0.0075000003
-0.033941057 -0.024872426 -0.0075000003
-0.033169761 -0.024939734 -0.0073167109
-0.032783106 -0.024937106 -0.0074371351
-0.032215513 -0.024910754 -0.0075000003
-0.031757139 -0.024877634 -0.0073648607
-0.031290732 -0.024885628 -0.0073216469
-0.03066176 -0.024924088 -0.0073905503
-0.030224903 -0.024939142 -0.0073193633
-0.02962023 -0.024894148 -0.0075000003
-0.029288137 -0.024936786 -0.0073587103
-0.028767394 -0.024774857 -0.0074195089
-0.028239647 -0.02495726 -0.007399159
-0.027644996 -0.024856649 -0.0072673163
-0.027114637 -0.024802193 -0.0075000003
-0.026804101 -0.024775634 -0.0075000003
-0.026070274 -0.024572255 -0.0075000003
-0.025755823 -0.024923755 -0.0073427628
-0.02533973 -0.024999999 -0.0072919321
-0.024607293 -0.02482518 -0.0073494576
-0.024340963 -0.024881715 -0.0074010133
-0.02368366 -0.024957359 -0.0073867473
-0.023168331 -0.024799671 -0.0072564604
-0.022706734 -0.024826249 -0.0073593804
-0.022252301 -0.02494185 -0.0073733875
-0.021704197 -0.024909707 -0.0074922186
-0.021272125 -0.024890378 -0.0074864104
-0.020756641 -0.024693523 -0.0075000003
-0.020173403 -0.025000002 -0.0072619547
-0.019692443 -0.024949493 -0.0074178218
-0.019269738 -0.024999999 -0.0071351728
-0.018887259 -0.024817729 -0.0074728676
-0.017783524 -0.024850573 -0.0072922562
-0.017206397 -0.0248673 -0.0073676691
-0.016705809 -0.024832558 -0.0073982864
-0.016087659 -0.024999999 -0.0072610029
-0.015860673 -0.024840955 -0.0073457351
-0.015127067 -0.024850244 -0.0073874593
-0.014558073 -0.024807941 -0.007314221
-0.014268589 -0.024879213 -0.0072988179
-0.013675349 -0.024922464 -0.0074993582
-0.013062292 -0.024783894 -0.0073832925
-0.01276092 -0.02480581 -0.0073415912
-0.012342411 -0.024829991 -0.0074086147
-0.011753396 -0.025 -0.0072824992
-0.01132424 -0.024867121 -0.0074164364
-0.010821097 -0.024836279 -0.0072961962
-0.010297047 -0.024907975 -0.0072740498
-0.0097163804 -0.024757778 -0.0074318112
-0.0093375659 -0.024949919 -0.0073216632
-0.0086431075 -0.024944019 -0.0073117353
-0.0081477631 -0.024760572 -0.0074007739
-0.0077867596 -0.024885656 -0.0073518525
-0.0073209302 -0.024817113 -0.0074319085
-0.0066431649 -0.024947483 -0.0072654355
-0.0061603747 -0.024951084 -0.0073857033
-0.0058514029 -0.02464875 -0.0075000003
-0.0052076709 -0.024822939 -0.007374418
-0.0048840442 -0.024778388 -0.0074380776
-0.004024175 -0.024968449 -0.0075000003
-0.0036184483 -0.024730681 -0.0075000003
-0.0030843429 -0.025 -0.0070800544
-0.0029022573 -0.024883253 -0.0073865438
-0.0024674761 -0.024818106 -0.0075000003
-0.0017380726 -0.024795085 -0.0074169636
-0.001278022 -0.024842976 -0.0073828213
-0.00078928663 -0.024909498 -0.0073893419
-0.00019974266 -0.024878835 -0.0074522039
0.00027244355 -0.024822256 -0.0074292994
0.00077518984 -0.024788259 -0.0074032545
0.0012631353 -0.024712814 -0.0073807444
0.0018092325 -0.024738833 -0.0074672624
0.0021910002 -0.02496469 -0.0073195482
0.0027808226 -0.024921676 -0.0073723909
0.0031938457 -0.024860216 -0.007301738
0.003661915 -0.024934899 -0.0073385127
0.0043131355 -0.02483969 -0.0074123517
0.0047887736 -0.024779653 -0.0074268668
0.0053352476 -0.024856105 -0.0072507467
0.0058066696 -0.024963617 -0.0075000003
0.006327353 -0.024901615 -0.0074021569
0.0066679795 -0.024867438 -0.007438771
0.0071217851 -0.024893941 -0.0073889908
0.0077784779 -0.024996575 -0.0073781665
0.008334307 -0.024955481 -0.0072859176
0.008710267 -0.024904193 -0.0072551705
0.0091313738 -0.025 -0.0072763292
0.0097140456 -0.024917496 -0.0074485466
0.010707418 -0.024849851 -0.007457389
0.011193059 -0.025000002 -0.0072388928
0.011821453 -0.024849042 -0.0074294
0.012283618 -0.024766192 -0.0075000003
0.012872617 -0.025 -0.0071264496
0.013235397 -0.024996288 -0.0073052375
0.013823261 -0.025 -0.007201232
0.014334681 -0.024833765 -0.0074078664
0.014773202 -0.024923259 -0.0072862897
0.015241381 -0.024507713 -0.0075000003
0.01575142 -0.024843557 -0.0074479319
0.016336909 -0.024859086 -0.0074112369
0.016704723 -0.02492187 -0.0073071737
0.017205596 -0.024862602 -0.007235276
0.017630011 -0.02496366 -0.0073638279
0.01819717 -0.024846388 -0.0074194833
0.018569008 -0.024595017 -0.0075000003
0.019289341 -0.024860155 -0.0073778182
0.019682998 -0.024793973 -0.0073525556
0.020152703 -0.024841314 -0.0073587876
0.020706745 -0.024700608 -0.0075000003
0.021130886 -0.025 -0.0072966842
0.021753959 -0.024787316 -0.0073870742
0.022285152 -0.024787445 -0.0074192015
0.022665942 -0.024971209 -0.0074610463
0.023403699 -0.02495536 -0.007349052
0.023610894 -0.024769805 -0.0072746701
0.024323678 -0.024776999 -0.0075000003
0.024877388 -0.024803389 -0.0073678121
0.025319114 -0.024793938 -0.0075000003
0.02564331 -0.024895526 -0.0074302959
0.026167231 -0.025 -0.0071618184
0.026567385 -0.024785815 -0.0075000003
0.027190162 -0.024978708 -0.0072699189
0.027663007 -0.024766902 -0.0074198013
0.02823017 -0.024868809 -0.007361962
0.029159002 -0.024864137 -0.0075000003
0.029797284 -0.02468743 -0.0074365195
0.030405607 -0.024929896 -0.0074313199
0.030881818 -0.024847792 -0.0075000003
0.031244004 -0.024805013 -0.0072900755
0.031703845 -0.024879558 -0.0073516523
0.032226235 -0.024927827 -0.0073674894
0.032741841 -0.024917062 -0.0073931133
0.033319622 -0.024809625 -0.0074624578
0.033826463 -0.024640908 -0.0075000003
0.034730777 -0.024857437 -0.0073194108
0.035189237 -0.025 -0.0070336033
0.035833225 -0.025 -0.0073816865
0.036316797 -0.024884462 -0.0073442971
0.036733888 -0.02490472 -0.0073553519
0.037138931 -0.024803381 -0.007384656
0.037705243 -0.024862114 -0.0074154548
0.038259648 -0.024911065 -0.0073226816
0.038746424 -0.024830554 -0.0074027469
0.039272681 -0.02487441 -0.0073891883
0.039847463 -0.024935937 -0.0074478425
0.040289927 -0.024794389 -0.0073310337
0.040761657 -0.024940763 -0.0073797246
0.041288909 -0.0248133 -0.0074994997
0.041757829 -0.024787612 -0.0072601549
0.042274132 -0.024776088 -0.007358578
0.042853992 -0.024904516 -0.0073069423
0.043257702 -0.024908945 -0.0075000003
0.043880049 -0.025 -0.0073419274
0.044304829 -0.024922252 -0.0074557862
0.044664972 -0.024776425 -0.0074302084
0.045346379 -0.024610005 -0.0075000003
0.04596404 -0.025 -0.0070946487
0.046282016 -0.024789453 -0.0075000003
0.047802895 -0.024862992 -0.0073728319
0.048343919 -0.025 -0.0072543863
0.048729807 -0.025 -0.00725094
0.049163546 -0.024845721 -0.0074140932
0.049806323 -0.02478308 -0.007355473
0.050000004 -0.024681659 -0.0070212698
-0.04989703 -0.024259472 -0.0072653284
-0.049255788 -0.024286779 -0.0075000003
-0.048537154 -0.024103133 -0.0075000003
-0.04837174 -0.024498647 -0.0075000003
-0.047150206 -0.024407016 -0.0075000003
-0.046878487 -0.024316285 -0.0075000003
-0.045591671 -0.024336433 -0.0075000003
-0.045304518 -0.024169838 -0.0075000003
-0.044739664 -0.024227373 -0.0075000003
-0.044073142 -0.024207197 -0.0075000003
-0.043834478 -0.024328232 -0.0075000003
-0.04322008 -0.024335034 -0.0075000003
-0.042740274 -0.024146026 -0.0075000003
-0.042259872 -0.024218515 -0.0075000003
-0.041206915 -0.024268875 -0.0075000003
-0.04063594 -0.024233999 -0.0075000003
-0.040182769 -0.024315728 -0.0075000003
-0.039672244 -0.024315311 -0.0075000003
-0.038723398 -0.024087531 -0.0075000003
-0.038119212 -0.024308659 -0.0075000003
-0.037577901 -0.024285926 -0.0075000003
-0.037271187 -0.024256604 -0.0075000003
-0.036698919 -0.024251372 -0.0075000003
-0.036143415 -0.024232097 -0.0075000003
-0.035835296 -0.024257788 -0.0075000003
-0.034528889 -0.024270298 -0.0075000003
-0.034397598 -0.02435598 -0.0075000003
-0.033719957 -0.024320966 -0.0075000003
-0.033262789 -0.024397114 -0.0075000003
-0.032109659 -0.024270358 -0.0075000003
-0.031746324 -0.024067057 -0.0075000003
-0.030843362 -0.024321219 -0.0075000003
-0.030299539 -0.024195664 -0.0075000003
-0.029727895 -0.024192415 -0.0075000003
-0.029133305 -0.024141265 -0.0075000003
-0.028696502 -0.024240652 -0.0075000003
-0.028302655 -0.024067342 -0.0075000003
-0.027575206 -0.024285842 -0.0075000003
-0.027357969 -0.024250835 -0.0075000003
-0.026744725 -0.024035806 -0.0075000003
-0.025745846 -0.024266627 -0.0075000003
-0.025264362 -0.024161773 -0.0075000003
-0.024434615 -0.024334401 -0.0075000003
-0.023748053 -0.024391579 -0.0075000003
-0.023459032 -0.024371695 -0.0075000003
-0.022916747 -0.02432462 -0.0075000003
-0.022243895 -0.024272703 -0.0075000003
-0.021601928 -0.024239147 -0.0075000003
-0.020776741 -0.024239549 -0.0075000003
-0.020300496 -0.024104195 -0.0075000003
-0.019362453 -0.02428023 -0.0075000003
-0.018781649 -0.024178432 -0.0075000003
-0.018241534 -0.024168875 -0.0075000003
-0.017603228 -0.024214024 -0.0075000003
-0.017304227 -0.024207659 -0.0075000003
-0.016949784 -0.024098098 -0.0075000003
-0.016247317 -0.024252651 -0.0075000003
-0.015945667 -0.024310801 -0.0075000003
-0.015174848 -0.024115559 -0.0075000003
-0.014849174 -0.024275348 -0.0075000003
-0.014307302 -0.024172125 -0.0075000003
-0.013665694 -0.024141731 -0.0075000003
-0.013233405 -0.024404701 -0.0075000003
-0.012751866 -0.024300465 -0.0075000003
-0.01214305 -0.024134969 -0.0075000003
-0.011777937 -0.024333041 -0.0075000003
-0.011238609 -0.024051575 -0.0075000003
-0.01026186 -0.024298491 -0.0075000003
-0.0099196052 -0.024459073 -0.0075000003
-0.0092749968 -0.024437817 -0.0075000003
-0.0089378878 -0.024103971 -0.0075000003
-0.0083847437 -0.024218697 -0.0075000003
-0.0077415528 -0.024431998 -0.0075000003
-0.0072087939 -0.024294274 -0.0075000003
-0.0066820565 -0.024316696 -0.0075000003
-0.0060494551 -0.024434181 -0.0075000003
-0.0058136629 -0.024246875 -0.0075000003
-0.0052583166 -0.024218095 -0.0075000003
-0.0047211517 -0.024188299 -0.0075000003
-0.0043476284 -0.024435015 -0.0075000003
-0.003159933 -0.024384938 -0.0075000003
-0.0029384652 -0.024275161 -0.0075000003
-0.0024589796 -0.024299191 -0.0075000003
-0.0018126436 -0.024178069 -0.0075000003
-0.0014528064 -0.024195127 -0.0075000003
-7.2921393e-05 -0.02430317 -0.0075000003
0.00030288685 -0.024118379 -0.0075000003
0.00069900136 -0.024242252 -0.0075000003
0.0013281074 -0.024334352 -0.0075000003
0.0018896911 -0.024087474 -0.0075000003
0.0022726324 -0.024095008 -0.0075000003
0.0031687 -0.024393586 -0.0075000003
0.0035840715 -0.024136366 -0.0075000003
0.0058145835 -0.024239926 -0.0075000003
0.0065420535 -0.024252763 -0.0075000003
0.0074237525 -0.024141463 -0.0075000003
0.007771634 -0.024221873 -0.0075000003
0.0092788152 -0.02423463 -0.0075000003
0.0102304 -0.024258239 -0.0075000003
0.011214312 -0.024247741 -0.0075000003
0.011784106 -0.024274094 -0.0075000003
0.012329012 -0.024228726 -0.0075000003
0.012780733 -0.024344394 -0.0074999998
0.013486089 -0.024331082 -0.0075000003
0.013790893 -0.024216935 -0.0075000003
0.014606886 -0.024143303 -0.0075000003
0.01514961 -0.02403827 -0.0075000003
0.016081747 -0.024078906 -0.0075000003
0.017441377 -0.024441794 -0.0075000003
0.017913343 -0.024294967 -0.0074999998
0.018473979 -0.024028571 -0.0075000003
0.018994318 -0.024291398 -0.0075000003
0.01904694 -0.024426306 -0.0075000003
0.019700324 -0.024231154 -0.0075000003
0.020032411 -0.024246888 -0.0075000003
0.020764824 -0.024265159 -0.0075000003
0.021114716 -0.024429889 -0.0075000003
0.021829523 -0.024262298 -0.0075000003
0.023359656 -0.024270566 -0.0075000003
0.024077766 -0.024315506 -0.0075000003
0.02474908 -0.02408435 -0.0075000003
0.025240872 -0.024045903 -0.0075000003
0.026004789 -0.024448844 -0.0075000003
0.026593795 -0.024421258 -0.0075000003
0.027060248 -0.024278991 -0.0075000003
0.028389286 -0.024082238 -0.0075000003
0.028712895 -0.024003886 -0.0075000003
0.029299205 -0.024495272 -0.0075000003
0.030028312 -0.024121244 -0.0075000003
0.031167418 -0.024232041 -0.0075000003
0.032318361 -0.024238274 -0.0075000003
0.032757606 -0.02436774 -0.0075000003
0.033167616 -0.024264809 -0.0075000003
0.033828415 -0.024386413 -0.0075000003
0.034273971 -0.024116758 -0.0075000003
0.034626521 -0.024406802 -0.0075000003
0.035318177 -0.024315467 -0.0075000003
0.035547532 -0.024131725 -0.0075000003
0.03629801 -0.024296062 -0.0075000003
0.036674298 -0.024274118 -0.0075000003
0.037412629 -0.024257317 -0.0075000003
0.0384137 -0.024063995 -0.0075000003
0.038598005 -0.024326125 -0.0075000003
0.039545827 -0.024032673 -0.0075000003
0.040138088 -0.024392972 -0.0075000003
0.041783109 -0.024316335 -0.0075000003
0.042318366 -0.024231983 -0.0075000003
0.042632919 -0.024151823 -0.0074999998
0.043181118 -0.024279863 -0.0075000003
0.044072878 -0.024207639 -0.0075000003
0.044738378 -0.024410518 -0.0075000003
0.045362346 -0.024344269 -0.0075000003
0.046153896 -0.024243603 -0.0075000003
0.046889335 -0.024121555 -0.0075000003
0.047393877 -0.024287498 -0.0075000003
0.047782745 -0.024256956 -0.0075000003
0.048136052 -0.024027003 -0.0075000003
0.048821051 -0.024135472 -0.0075000003
0.050000001 -0.024208032 -0.0074699731
-0.049899977 -0.023856537 -0.0073569082
-0.049214154 -0.023551404 -0.0075000003
-0.048751485 -0.023868242 -0.0075000003
-0.047714356 -0.023964943 -0.0075000003
-0.047422573 -0.023885073 -0.0075000003
-0.04665038 -0.023984982 -0.0075000003
-0.045727249 -0.023762299 -0.0075000003
-0.045359921 -0.023923302 -0.0075000003
-0.044708248 -0.023650708 -0.0075000003
-0.044399001 -0.023814244 -0.0075000003
-0.043838233 -0.023708276 -0.0075000003
-0.043428041 -0.023696641 -0.0075000003
-0.042047903 -0.023769913 -0.0075000003
-0.041902479 -0.023961097 -0.0075000003
-0.041236188 -0.023544418 -0.0075000003
-0.040815286 -0.02365881 -0.0075000003
-0.040210553 -0.023785831 -0.0075000003
-0.039716538 -0.023827504 -0.0075000003
-0.039249193 -0.023803895 -0.0075000003
-0.038951993 -0.023798386 -0.0075000003
-0.038080949 -0.023871468 -0.0075000003
-0.037852891 -0.023887398 -0.0075000003
-0.037380785 -0.023701029 -0.0075000003
-0.036703229 -0.023695467 -0.0075000003
-0.035648048 -0.023562271 -0.0075000003
-0.034880534 -0.023918075 -0.0075000003
-0.034265187 -0.023686644 -0.0075000003
-0.033772685 -0.023651637 -0.0075000003
-0.033223078 -0.023723848 -0.0075000003
-0.032749228 -0.02371469 -0.0075000003
-0.032479152 -0.023586664 -0.0075000003
-0.031728007 -0.023919091 -0.0075000003
-0.030929996 -0.023984212 -0.0075000003
-0.030103339 -0.023678884 -0.0075000003
-0.029951472 -0.023643674 -0.0075000003
-0.029067079 -0.023833619 -0.0075000003
-0.028717684 -0.023683617 -0.0075000003
-0.028214853 -0.023809493 -0.0075000003
-0.02750992 -0.023752246 -0.0075000003
-0.027438864 -0.023579704 -0.0075000003
-0.026753789 -0.023706188 -0.0075000003
-0.026049081 -0.023633016 -0.0075000003
-0.025750142 -0.023683371 -0.0075000003
-0.025248103 -0.02366678 -0.0075000003
-0.024923673 -0.023856791 -0.0075000003
-0.024281386 -0.023804897 -0.0075000003
-0.023829186 -0.023647921 -0.0075000003
-0.023129832 -0.023711801 -0.0075000003
-0.022733707 -0.023764865 -0.0075000003
-0.021978458 -0.023698051 -0.0075000003
-0.021259777 -0.023697628 -0.0075000003
-0.019720593 -0.023716167 -0.0075000003
-0.018737588 -0.023627378 -0.0075000003
-0.018260447 -0.02358933 -0.0075000003
-0.017917104 -0.023710011 -0.0075000003
-0.017227452 -0.023646083 -0.0075000003
-0.016612632 -0.023578884 -0.0075000003
-0.016300483 -0.023792109 -0.0075000003
-0.015851984 -0.023826912 -0.0075000003
-0.015161477 -0.023622438 -0.0075000003
-0.014851578 -0.023757771 -0.0075000003
-0.014096851 -0.02380164 -0.0075000003
-0.012893719 -0.023676723 -0.0075000003
-0.01240451 -0.023858136 -0.0075000003
-0.011907672 -0.023719301 -0.0075000003
-0.01141962 -0.02386914 -0.0075000003
-0.0096482094 -0.023752268 -0.0075000003
-0.0092512732 -0.023630241 -0.0075000003
-0.008551619 -0.023997935 -0.0075000003
-0.0082598291 -0.023747781 -0.0075000003
-0.0073079714 -0.023763636 -0.0075000003
-0.0057176608 -0.023985526 -0.0075000003
-0.0050628404 -0.023886042 -0.0075000003
-0.0046534012 -0.023680085 -0.0075000003
-0.0042273961 -0.023761146 -0.0075000003
-0.0031614322 -0.023705812 -0.0075000003
-0.0027080851 -0.023880456 -0.0075000003
-0.0022876814 -0.023749864 -0.0075000003
-0.0012961151 -0.023748245 -0.0075000003
-0.00064454076 -0.023679685 -0.0075000003
-0.00032981802 -0.023759658 -0.0075000003
0.00011672662 -0.023892788 -0.0075000003
0.00082625489 -0.023618657 -0.0075000003
0.00112799 -0.023630969 -0.0075000003
0.0028050526 -0.023749189 -0.0075000003
0.0031875018 -0.02390687 -0.0075000003
0.0043126065 -0.02366622 -0.0075000003
0.0047261752 -0.023773702 -0.0075000003
0.0052328371 -0.023639821 -0.0075000003
0.005758076 -0.023651036 -0.0075000003
0.0068990979 -0.023844123 -0.0075000003
0.0073885373 -0.023689121 -0.0075000003
0.0077503091 -0.023800893 -0.0075000003
0.0084775612 -0.023667963 -0.0075000003
0.0097296005 -0.023814406 -0.0075000003
0.01026827 -0.023894848 -0.0075000003
0.010756487 -0.023795336 -0.0075000003
0.011926183 -0.023720093 -0.0075000003
0.012344882 -0.023504727 -0.0075000003
0.012745474 -0.023804605 -0.0075000003
0.013800513 -0.023806751 -0.0075000003
0.014346054 -0.023639075 -0.0075000003
0.01482402 -0.023597736 -0.0075000003
0.015493571 -0.023582391 -0.0075000003
0.015682898 -0.023710605 -0.0075000003
0.016114419 -0.023682402 -0.0075000003
0.017309008 -0.023692653 -0.0075000003
0.017795082 -0.023730597 -0.0075000003
0.018213121 -0.023972318 -0.0075000003
0.018800022 -0.023774179 -0.0075000003
0.020227065 -0.023956439 -0.0075000003
0.020886391 -0.023628157 -0.0075000003
0.021291135 -0.023633495 -0.0075000003
0.021652043 -0.023700312 -0.0075000003
0.022123525 -0.023633534 -0.0075000003
0.022592857 -0.023808828 -0.0075000003
0.023043269 -0.023811596 -0.0075000003
0.024337495 -0.023949092 -0.0075000003
0.024664883 -0.023845933 -0.0075000003
0.025692971 -0.023645662 -0.0075000003
0.026741009 -0.023842441 -0.0075000003
0.02707486 -0.023759013 -0.0075000003
0.027779508 -0.0237161 -0.0075000003
0.028191686 -0.02351049 -0.0075000003
0.028767971 -0.023874471 -0.0075000003
0.029352156 -0.023503365 -0.0075000003
0.030390013 -0.02384305 -0.0075000003
0.030858422 -0.023770379 -0.0075000003
0.031351332 -0.023849202 -0.0075000003
0.031782273 -0.023941692 -0.0075000003
0.032338433 -0.023779342 -0.0075000003
0.032852873 -0.023528853 -0.0075000003
0.03335372 -0.0237695 -0.0075000003
0.033711575 -0.023889296 -0.0075000003
0.03407862 -0.023840755 -0.0075000003
0.034879316 -0.023847189 -0.0075000003
0.035075165 -0.023842305 -0.0075000003
0.035829142 -0.023975007 -0.0075000003
0.036288347 -0.023615213 -0.0075000003
0.037269745 -0.023934498 -0.0075000003
0.038978558 -0.023828337 -0.0075000003
0.039529979 -0.023602204 -0.0075000003
0.040270794 -0.023744032 -0.0075000003
0.040990416 -0.023747182 -0.0075000003
0.041033335 -0.023742372 -0.0075000003
0.041863553 -0.023943963 -0.0075000003
0.042290449 -0.023727566 -0.0075000003
0.042642187 -0.023926992 -0.0075000003
0.043499704 -0.023610653 -0.0075000003
0.043802969 -0.023816682 -0.0075000003
0.044161264 -0.023774445 -0.0075000003
0.044691071 -0.023504155 -0.0074999998
0.045305461 -0.023767464 -0.0075000003
0.045917667 -0.02397237 -0.0075000003
0.046240274 -0.02385173 -0.0075000003
0.047140419 -0.023802849 -0.0075000003
0.048126142 -0.02362442 -0.0075000003
0.048986483 -0.023926402 -0.0075000003
0.049102642 -0.023668006 -0.0075000003
0.050000001 -0.023562327 -0.0071643535
-0.04984777 -0.023241147 -0.007268976
-0.049287021 -0.023342161 -0.0075000003
-0.048903763 -0.023252461 -0.0075000003
-0.048301063 -0.023364143 -0.0075000003
-0.047532909 -0.023373932 -0.0075000003
-0.047198683 -0.023306154 -0.0075000003
-0.046994548 -0.023098433 -0.0075000003
-0.046374843 -0.023242151 -0.0075000003
-0.045727704 -0.0231895 -0.0075000003
-0.045226973 -0.023304189 -0.0075000003
-0.043750327 -0.023165688 -0.0075000003
-0.043369018 -0.023324713 -0.0075000003
-0.042804707 -0.02314044 -0.0075000003
-0.042179957 -0.023174277 -0.0075000003
-0.041806687 -0.023326712 -0.0075000003
-0.041267585 -0.023318605 -0.0075000003
-0.040999461 -0.023452746 -0.0075000003
-0.040300913 -0.023237122 -0.0075000003
-0.039818056 -0.023113061 -0.0075000003
-0.039359272 -0.023127066 -0.0075000003
-0.038738683 -0.023326198 -0.0075000003
-0.038288444 -0.023274273 -0.0075000003
-0.037926748 -0.023096742 -0.0075000003
-0.036659561 -0.023079379 -0.0075000003
-0.036442805 -0.023276256 -0.0075000003
-0.035846706 -0.023251906 -0.0075000003
-0.035132393 -0.023228778 -0.0075000003
-0.034180269 -0.023277862 -0.0075000003
-0.033783294 -0.023177968 -0.0075000003
-0.033187918 -0.023289073 -0.0075000003
-0.032134198 -0.023396568 -0.0075000003
-0.031846508 -0.023331944 -0.0075000003
-0.031040706 -0.023235086 -0.0075000003
-0.03082519 -0.023149477 -0.0075000003
-0.030253097 -0.023200024 -0.0075000003
-0.02970669 -0.023341032 -0.0075000003
-0.029061459 -0.023291029 -0.0075000003
-0.02810896 -0.023241563 -0.0075000003
-0.027676411 -0.023098387 -0.0075000003
-0.027363494 -0.023264099 -0.0075000003
-0.026700463 -0.023190638 -0.0075000003
-0.026254702 -0.023251832 -0.0075000003
-0.025904929 -0.023363682 -0.0075000003
-0.02542977 -0.023226378 -0.0075000003
-0.024747625 -0.023484675 -0.0075000003
-0.024196818 -0.023105375 -0.0075000003
-0.023799255 -0.02328291 -0.0075000003
-0.023260957 -0.023325147 -0.0075000003
-0.022771589 -0.023309946 -0.0075000003
-0.022342421 -0.023235049 -0.0075000003
-0.021557618 -0.023110721 -0.0075000003
-0.021297304 -0.023310283 -0.0075000003
-0.020211341 -0.023310941 -0.0075000003
-0.019840254 -0.023319179 -0.0075000003
-0.019427247 -0.0231889 -0.0075000003
-0.018693056 -0.023038704 -0.0075000003
-0.01825281 -0.0231985 -0.0075000003
-0.017938636 -0.023373907 -0.0075000003
-0.017185198 -0.023125621 -0.0075000003
-0.016803382 -0.023421146 -0.0075000003
-0.016475288 -0.023481939 -0.0075000003
-0.015528711 -0.023389667 -0.0075000003
-0.01533797 -0.023144076 -0.0075000003
-0.014864086 -0.023375085 -0.0075000003
-0.014287723 -0.023284201 -0.0075000003
-0.013268803 -0.023334555 -0.0075000003
-0.012275625 -0.02303757 -0.0075000003
-0.011788892 -0.023061132 -0.0075000003
-0.01109428 -0.023301071 -0.0075000003
-0.01075509 -0.023280628 -0.0075000003
-0.010134101 -0.023314605 -0.0075000003
-0.0096374005 -0.02321236 -0.0075000003
-0.0090913111 -0.023137001 -0.0075000003
-0.008732059 -0.02325386 -0.0075000003
-0.0081642102 -0.023221623 -0.0075000003
-0.0073106121 -0.023414141 -0.0075000003
-0.0066332202 -0.023103679 -0.0075000003
-0.0064650085 -0.023222318 -0.0075000003
-0.0059824404 -0.023271332 -0.0075000003
-0.00497289 -0.023108406 -0.0075000003
-0.0041873977 -0.023192564 -0.0075000003
-0.00380094 -0.023277814 -0.0075000003
-0.0027577654 -0.023455372 -0.0075000003
-0.0022903599 -0.023213448 -0.0075000003
-0.0017691916 -0.023219731 -0.0075000003
-0.00083118177 -0.023240447 -0.0075000003
-0.00013141567 -0.023104047 -0.0075000003
0.00056397601 -0.023241984 -0.0075000003
0.0014570946 -0.023144288 -0.0075000003
0.0016006281 -0.023204638 -0.0075000003
0.002223229 -0.02310684 -0.0075000003
0.002545835 -0.02321497 -0.0075000003
0.0032805842 -0.023363862 -0.0075000003
0.0037477319 -0.023232277 -0.0075000003
0.0049658492 -0.023218542 -0.0075000003
0.0052342322 -0.023239763 -0.0075000003
0.0056805592 -0.023456655 -0.0075000003
0.0062811128 -0.023158686 -0.0075000003
0.0066776252 -0.023253307 -0.0075000003
0.0073871063 -0.023437908 -0.0075000003
0.0082933698 -0.02324691 -0.0075000003
0.0093404576 -0.023291821 -0.0075000003
0.0095473761 -0.023323404 -0.0075000003
0.010079214 -0.023335852 -0.0075000003
0.010513478 -0.023343155 -0.0074999998
0.011168512 -0.023085689 -0.0075000003
0.011876598 -0.023162957 -0.0075000003
0.012241805 -0.023354018 -0.0075000003
0.012644226 -0.023350988 -0.0075000003
0.013212623 -0.02349237 -0.0075000003
0.01376112 -0.023321651 -0.0075000003
0.014727559 -0.023202227 -0.0074999998
0.015388303 -0.0234008 -0.0075000003
0.016756637 -0.023221783 -0.0075000003
0.017768281 -0.023253385 -0.0075000003
0.01917439 -0.023238584 -0.0075000003
0.020226013 -0.023236608 -0.0075000003
0.020838009 -0.023110054 -0.0075000003
0.022372618 -0.02343742 -0.0075000003
0.022760959 -0.023155155 -0.0075000003
0.023712596 -0.023091106 -0.0075000003
0.024309659 -0.023389973 -0.0075000003
0.025658153 -0.023113078 -0.0075000003
0.026284294 -0.023310587 -0.0075000003
0.026986074 -0.023051167 -0.0075000003
0.027174857 -0.02318068 -0.0075000003
0.027722688 -0.023333162 -0.0075000003
0.028185355 -0.023177721 -0.0075000003
0.028780431 -0.023233473 -0.0075000003
0.029076137 -0.023322135 -0.0075000003
0.029771235 -0.023119757 -0.0075000003
0.030210204 -0.023227271 -0.0075000003
0.030554432 -0.023137895 -0.0075000003
0.031331621 -0.023241641 -0.0075000003
0.031729851 -0.023302408 -0.0075000003
0.032331623 -0.02333406 -0.0075000003
0.03265233 -0.023410158 -0.0075000003
0.033335928 -0.023166189 -0.0075000003
0.033941433 -0.023499878 -0.0075000003
0.034316085 -0.023174645 -0.0074999998
0.034618281 -0.02310886 -0.0075000003
0.035238586 -0.023010416 -0.0075000003
0.035722338 -0.023294482 -0.0075000003
0.036240164 -0.023302121 -0.0075000003
0.036633577 -0.023266101 -0.0075000003
0.037262555 -0.023312394 -0.0075000003
0.037789341 -0.023432659 -0.0075000003
0.0384381 -0.023137318 -0.0075000003
0.038585413 -0.023377994 -0.0075000003
0.039052825 -0.023198845 -0.0074999998
0.040842306 -0.023224413 -0.0075000003
0.041075565 -0.02313178 -0.0075000003
0.041706849 -0.023102477 -0.0075000003
0.04221683 -0.023361281 -0.0075000003
0.042796325 -0.023122666 -0.0075000003
0.043320559 -0.023115765 -0.0075000003
0.044552457 -0.023498541 -0.0075000003
0.045611706 -0.023083882 -0.0074999998
0.047353271 -0.023043673 -0.0075000003
0.047617387 -0.023490857 -0.0075000003
0.048181225 -0.023136465 -0.0075000003
0.04866666 -0.023039108 -0.0075000003
0.049318496 -0.023244439 -0.0075000003
0.049597021 -0.023153285 -0.0075000003
-0.049898144 -0.022729186 -0.0073835822
-0.049257822 -0.022637902 -0.0075000003
-0.048586309 -0.02267129 -0.0075000003
-0.048244409 -0.022674568 -0.0075000003
-0.04764051 -0.022642819 -0.0075000003
-0.047294553 -0.022759443 -0.0075000003
-0.046976246 -0.022971829 -0.0075000003
-0.046115439 -0.022655712 -0.0075000003
-0.045773182 -0.022584999 -0.0075000003
-0.04536403 -0.022837564 -0.0075000003
-0.044729289 -0.022637639 -0.0075000003
-0.044179156 -0.022791134 -0.0075000003
-0.043951839 -0.022531005 -0.0075000003
-0.042597793 -0.022723962 -0.0075000003
-0.042285461 -0.022724027 -0.0075000003
-0.04165218 -0.022648143 -0.0075000003
-0.041316707 -0.02260332 -0.0075000003
-0.040607784 -0.022732167 -0.0075000003
-0.040275808 -0.022665156 -0.0075000003
-0.039908864 -0.02290374 -0.0075000003
-0.03923589 -0.022630138 -0.0075000003
-0.038609464 -0.022976728 -0.0075000003
-0.03755537 -0.022617377 -0.0075000003
-0.037245344 -0.022748074 -0.0075000003
-0.036609773 -0.022523636 -0.0075000003
-0.03614283 -0.022964671 -0.0075000003
-0.035822593 -0.02285012 -0.0075000003
-0.035454422 -0.022809969 -0.0075000003
-0.034684282 -0.022661731 -0.0075000003
-0.034385789 -0.022655338 -0.0075000003
-0.033234175 -0.022857688 -0.0075000003
-0.032854304 -0.022652075 -0.0075000003
-0.032231055 -0.022883166 -0.0075000003
-0.031853475 -0.022595501 -0.0075000003
-0.031226054 -0.022677939 -0.0075000003
-0.030404301 -0.02298552 -0.0075000003
-0.029717103 -0.02290486 -0.0075000003
-0.02914645 -0.022982964 -0.0075000003
-0.028755382 -0.022727989 -0.0075000003
-0.028136127 -0.022828348 -0.0075000003
-0.027104121 -0.022702996 -0.0075000003
-0.026750205 -0.022628546 -0.0075000003
-0.026386842 -0.022917079 -0.0075000003
-0.025814943 -0.022730246 -0.0075000003
-0.024810173 -0.022750022 -0.0075000003
-0.024053968 -0.022927811 -0.0075000003
-0.023844304 -0.022731207 -0.0075000003
-0.022629341 -0.022872878 -0.0075000003
-0.022252159 -0.022793435 -0.0075000003
-0.0219111 -0.022898242 -0.0075000003
-0.02145713 -0.02266752 -0.0075000003
-0.020974923 -0.022833103 -0.0075000003
-0.019665953 -0.022735212 -0.0075000003
-0.019218136 -0.022653284 -0.0075000003
-0.017764369 -0.022814719 -0.0075000003
-0.017175829 -0.022721425 -0.0075000003
-0.016700637 -0.022731243 -0.0075000003
-0.015701471 -0.022812907 -0.0075000003
-0.015167564 -0.022767479 -0.0075000003
-0.014751193 -0.022532376 -0.0075000003
-0.014196741 -0.022705987 -0.0075000003
-0.013269315 -0.022670047 -0.0075000003
-0.012822189 -0.022856889 -0.0075000003
-0.012243204 -0.022631098 -0.0075000003
-0.011698839 -0.022691762 -0.0075000003
-0.011212846 -0.022637457 -0.0075000003
-0.010805896 -0.022996007 -0.0075000003
-0.010395973 -0.02280225 -0.0075000003
-0.0099857673 -0.022804974 -0.0075000003
-0.0094640609 -0.022536105 -0.0075000003
-0.0088049918 -0.022750041 -0.0075000003
-0.0081528202 -0.022727709 -0.0075000003
-0.0076214541 -0.022784948 -0.0075000003
-0.0073497333 -0.022882907 -0.0075000003
-0.0069357031 -0.022782551 -0.0075000003
-0.0062225489 -0.022717226 -0.0075000003
-0.0057766465 -0.022773201 -0.0075000003
-0.0050489586 -0.022790069 -0.0075000003
-0.004797156 -0.022710253 -0.0075000003
-0.0043109995 -0.022785528 -0.0075000003
-0.0039500678 -0.022813389 -0.0075000003
-0.003423742 -0.022579486 -0.0075000003
-0.002844173 -0.022701556 -0.0075000003
-0.0022473368 -0.022737758 -0.0075000003
-0.0018915755 -0.022940569 -0.0075000003
-0.0014163038 -0.022769561 -0.0075000003
-0.00074602704 -0.02281009 -0.0075000003
0.0002159562 -0.022746472 -0.0075000003
0.00094451453 -0.022609329 -0.0075000003
0.0018487428 -0.022714648 -0.0075000003
0.0027270028 -0.022740688 -0.0075000003
0.0032551091 -0.022699105 -0.0075000003
0.003663593 -0.022720829 -0.0075000003
0.0042523639 -0.022662925 -0.0075000003
0.0046236711 -0.022935042 -0.0075000003
0.0062960554 -0.022702508 -0.0075000003
0.0071047964 -0.022804968 -0.0075000003
0.0076998989 -0.022751253 -0.0075000003
0.0082290014 -0.022775063 -0.0075000003
0.0086403051 -0.022660546 -0.0075000003
0.0092473906 -0.022878259 -0.0075000003
0.0096993297 -0.022820946 -0.0075000003
0.010237846 -0.022639969 -0.0075000003
0.010765137 -0.02261154 -0.0075000003
0.011161538 -0.022708718 -0.0075000003
0.011725577 -0.02276572 -0.0075000003
0.012028604 -0.022908373 -0.0075000003
0.012672041 -0.022807298 -0.0075000003
0.013786782 -0.022560477 -0.0075000003
0.015853129 -0.022963597 -0.0075000003
0.01633919 -0.022772083 -0.0075000003
0.016686786 -0.022745365 -0.0075000003
0.017473843 -0.02289978 -0.0075000003
0.017597629 -0.022622159 -0.0075000003
0.018225754 -0.022679776 -0.0075000003
0.018840436 -0.022922657 -0.0075000003
0.019091072 -0.022552095 -0.0075000003
0.020130139 -0.022709038 -0.0075000003
0.020804407 -0.022737218 -0.0075000003
0.021626931 -0.022683337 -0.0075000003
0.022300603 -0.022677032 -0.0075000003
0.022588469 -0.022798309 -0.0075000003
0.023228418 -0.022649767 -0.0075000003
0.023692239 -0.022919727 -0.0075000003
0.024261829 -0.022754 -0.0075000003
0.024878424 -0.02267427 -0.0075000003
0.025254583 -0.022966251 -0.0075000003
0.025675312 -0.022726873 -0.0075000003
0.026243359 -0.022854039 -0.0075000003
0.026676903 -0.022782013 -0.0075000003
0.027815504 -0.022754742 -0.0075000003
0.028167095 -0.022899615 -0.0075000003
0.028782129 -0.022728976 -0.0075000003
0.029228328 -0.022645561 -0.0075000003
0.029658217 -0.022650274 -0.0075000003
0.030947046 -0.022858577 -0.0075000003
0.031237135 -0.022872739 -0.0075000003
0.031785905 -0.022574665 -0.0075000003
0.032083347 -0.022707848 -0.0075000003
0.033267144 -0.022748064 -0.0075000003
0.034224965 -0.022852534 -0.0075000003
0.034829259 -0.022617422 -0.0075000003
0.035169762 -0.022998404 -0.0075000003
0.036273502 -0.022573508 -0.0074999998
0.036643155 -0.022636583 -0.0075000003
0.037279032 -0.022880027 -0.0075000003
0.037550218 -0.022975225 -0.0074999998
0.038436785 -0.02287277 -0.0075000003
0.039226301 -0.022709377 -0.0075000003
0.039622057 -0.022642849 -0.0074999998
0.040324952 -0.02259271 -0.0075000003
0.040833186 -0.022795446 -0.0075000003
0.041043483 -0.022867128 -0.0075000003
0.041868705 -0.022967167 -0.0074999998
0.042206809 -0.022763718 -0.0075000003
0.042670984 -0.02270429 -0.0075000003
0.043306597 -0.022831814 -0.0075000003
0.043878943 -0.022703847 -0.0075000003
0.044914164 -0.022603007 -0.0075000003
0.045395616 -0.022610309 -0.0075000003
0.045520429 -0.0227028 -0.0075000003
0.046362575 -0.02269887 -0.0075000003
0.046999846 -0.022583677 -0.0075000003
0.047440942 -0.022540862 -0.0075000003
0.047818162 -0.02266629 -0.0075000003
0.048319343 -0.022789532 -0.0075000003
0.048736472 -0.022639355 -0.0075000003
0.049349923 -0.022707544 -0.0075000003
0.049950782 -0.0227169 -0.0072879707
-0.049811158 -0.022253875 -0.007417419
-0.048378013 -0.022023546 -0.0075000003
-0.047715511 -0.022223772 -0.0075000003
-0.047136988 -0.022374844 -0.0075000003
-0.046756715 -0.022057803 -0.0075000003
-0.046124794 -0.022294261 -0.0075000003
-0.04569729 -0.022335129 -0.0075000003
-0.045321688 -0.022231756 -0.0075000003
-0.044687182 -0.022478024 -0.0075000003
-0.04430769 -0.022194961 -0.0075000003
-0.043510735 -0.022469206 -0.0075000003
-0.042790748 -0.022192586 -0.0075000003
-0.041144185 -0.022135444 -0.0075000003
-0.040677425 -0.022232303 -0.0075000003
-0.040199079 -0.022313459 -0.0075000003
-0.039888747 -0.022457285 -0.0075000003
-0.039223131 -0.02231084 -0.0075000003
-0.038478613 -0.022177797 -0.0075000003
-0.037874091 -0.022141971 -0.0075000003
-0.036569323 -0.022308657 -0.0075000003
-0.036325343 -0.022233758 -0.0075000003
-0.035999998 -0.022021165 -0.0075000003
-0.035360012 -0.022414608 -0.0075000003
-0.034593858 -0.022303049 -0.0075000003
-0.034170769 -0.022361962 -0.0075000003
-0.03356659 -0.022213029 -0.0075000003
-0.033386305 -0.022132218 -0.0075000003
-0.032904707 -0.022171371 -0.0075000003
-0.032338448 -0.022498691 -0.0075000003
-0.031716786 -0.022321412 -0.0075000003
-0.031261258 -0.022335254 -0.0075000003
-0.030923031 -0.022131914 -0.0075000003
-0.030133262 -0.022264471 -0.0075000003
-0.029892983 -0.022266923 -0.0075000003
-0.028550448 -0.022285821 -0.0075000003
-0.028207678 -0.022086585 -0.0075000003
-0.027632203 -0.022344489 -0.0075000003
-0.027314475 -0.022289587 -0.0075000003
-0.026990056 -0.022289464 -0.0075000003
-0.026227111 -0.022224447 -0.0075000003
-0.025772892 -0.022243774 -0.0075000003
-0.025299989 -0.022359151 -0.0075000003
-0.024765773 -0.022291979 -0.0075000003
-0.024286138 -0.022306452 -0.0075000003
-0.023586217 -0.022239495 -0.0075000003
-0.023305476 -0.022290708 -0.0075000003
-0.022462567 -0.022208063 -0.0075000003
-0.021669984 -0.022301577 -0.0075000003
-0.021205582 -0.022060141 -0.0075000003
-0.020635404 -0.022041205 -0.0075000003
-0.020209245 -0.022244275 -0.0075000003
-0.019381585 -0.022235289 -0.0075000003
-0.018955568 -0.022260573 -0.0075000003
-0.018192085 -0.022150919 -0.0075000003
-0.017782891 -0.022383768 -0.0075000003
-0.016516721 -0.022255547 -0.0075000003
-0.016231641 -0.022233235 -0.0075000003
-0.015768316 -0.022340283 -0.0075000003
-0.015393451 -0.022111638 -0.0075000003
-0.014849031 -0.02220162 -0.0075000003
-0.014110188 -0.022200515 -0.0075000003
-0.013634736 -0.022174696 -0.0075000003
-0.012749625 -0.022257555 -0.0075000003
-0.011675092 -0.022339059 -0.0075000003
-0.011290938 -0.022326924 -0.0075000003
-0.010731791 -0.022197133 -0.0075000003
-0.010403853 -0.022223059 -0.0075000003
-0.0097590685 -0.022280766 -0.0075000003
-0.0092777554 -0.022230636 -0.0075000003
-0.0086619817 -0.022464098 -0.0075000003
-0.0082047535 -0.022326084 -0.0075000003
-0.0079399124 -0.022369774 -0.0075000003
-0.0070401197 -0.022244724 -0.0075000003
-0.0067536389 -0.022223255 -0.0075000003
-0.006247445 -0.022417704 -0.0075000003
-0.0056525865 -0.022278896 -0.0075000003
-0.0051738811 -0.022246601 -0.0075000003
-0.0046499497 -0.022384917 -0.0075000003
-0.004289058 -0.022368239 -0.0075000003
-0.0034444628 -0.022367718 -0.0075000003
-0.0029412461 -0.022301542 -0.0075000003
-0.002276073 -0.02229148 -0.0075000003
-0.001743839 -0.022116052 -0.0075000003
-0.00059086806 -0.022485968 -0.0075000003
-4.607765e-05 -0.022124449 -0.0075000003
0.00027317763 -0.022158608 -0.0075000003
0.0007572507 -0.022158278 -0.0075000003
0.001317411 -0.02223032 -0.0075000003
0.0021711404 -0.02238475 -0.0075000003
0.0028645014 -0.022254059 -0.0075000003
0.0033495654 -0.022482853 -0.0075000003
0.0037964545 -0.022439042 -0.0075000003
0.0047420957 -0.022248929 -0.0075000003
0.005085987 -0.022027487 -0.0075000003
0.0057716127 -0.022198293 -0.0075000003
0.0063624182 -0.022206238 -0.0075000003
0.0072398474 -0.022266695 -0.0075000003
0.0080982251 -0.022283198 -0.0075000003
0.0092387274 -0.022142822 -0.0075000003
0.0097958706 -0.022300329 -0.0075000003
0.010185217 -0.022258375 -0.0075000003
0.010683679 -0.022302296 -0.0075000003
0.011599424 -0.022113446 -0.0075000003
0.012282371 -0.022134224 -0.0075000003
0.012937468 -0.022271149 -0.0075000003
0.013210925 -0.022130055 -0.0075000003
0.013610959 -0.022471394 -0.0075000003
0.014399702 -0.022396969 -0.0075000003
0.014977533 -0.022216171 -0.0075000003
0.015335495 -0.022474539 -0.0075000003
0.015764371 -0.022245465 -0.0075000003
0.016171794 -0.022268131 -0.0075000003
0.017088152 -0.022349343 -0.0075000003
0.01771134 -0.022248838 -0.0075000003
0.01817878 -0.022136783 -0.0075000003
0.018706385 -0.022300109 -0.0075000003
0.019275205 -0.022319937 -0.0075000003
0.019772584 -0.022407355 -0.0075000003
0.020221904 -0.022264631 -0.0075000003
0.020676997 -0.022364536 -0.0075000003
0.021157175 -0.022423886 -0.0075000003
0.022273432 -0.022207193 -0.0074999998
0.022630829 -0.022408325 -0.0075000003
0.024318978 -0.02231556 -0.0075000003
