# .PCD v0.7 - Point Cloud Data file format
VERSION 0.7
FIELDS x y z
SIZE 4 4 4
TYPE F F F
COUNT 1 1 1
WIDTH 1231
HEIGHT 1
VIEWPOINT 0 0 0 1 0 0 0
POINTS 1231
DATA ascii
-0.0298694 -0.070175961 -0.036153447
-0.028123362 -0.070277572 -0.036238097
-0.027328359 -0.07018809 -0.036131173
-0.025338303 -0.07012783 -0.036163732
-0.024886379 -0.070112646 -0.036109798
-0.022897065 -0.070123546 -0.036192335
-0.021625508 -0.070409 -0.036081158
-0.020763416 -0.070032135 -0.036173657
-0.019737609 -0.070385858 -0.036064614
-0.018885667 -0.070482157 -0.03605713
-0.017241873 -0.070328668 -0.036142737
-0.014457509 -0.070333064 -0.036018357
-0.012926092 -0.070131347 -0.036104959
-0.0081578372 -0.070326746 -0.036063135
-0.005970221 -0.070469528 -0.036043935
-0.0022997893 -0.07001128 -0.03601186
-0.032199625 -0.069708183 -0.036036167
-0.031030357 -0.069667652 -0.036136318
-0.029560484 -0.069693431 -0.036150828
-0.023038216 -0.06996695 -0.036093615
-0.022198949 -0.069771782 -0.036136292
-0.021181745 -0.069995478 -0.036077343
-0.020236757 -0.069935411 -0.036119066
-0.016919194 -0.069921419 -0.036139987
-0.014605517 -0.069591418 -0.036019787
-0.014350341 -0.06981533 -0.036017507
-0.011988888 -0.069521993 -0.036096856
-0.011278288 -0.069732547 -0.03609059
-0.010449577 -0.069679998 -0.036083337
-0.0087719411 -0.069822505 -0.036068611
-0.005295258 -0.069702148 -0.036038168
-0.025692275 -0.069411136 -0.036216948
-0.024968622 -0.069288336 -0.036210626
-0.023848038 -0.069176085 -0.036100872
-0.021176755 -0.069003828 -0.036177468
-0.020785002 -0.069339387 -0.036173973
-0.02037172 -0.069374621 -0.036170345
-0.012957422 -0.069383673 -0.036105372
-0.0096297804 -0.069076128 -0.03607627
-0.0077399104 -0.069260143 -0.03605967
-0.0041360939 -0.069407314 -0.036028065
-0.0033018417 -0.069138288 -0.0360208
-0.0029407227 -0.069053292 -0.036017653
-0.0024706209 -0.069260426 -0.036013499
-0.0013383515 -0.069026925 -0.036003619
-0.031899158 -0.068678685 -0.036003381
-0.031262368 -0.068959795 -0.036220185
-0.030376123 -0.068578742 -0.036158178
-0.029892795 -0.068961501 -0.036253832
-0.029419994 -0.068764545 -0.036249727
-0.02684981 -0.068853967 -0.036227189
-0.023561021 -0.068688728 -0.036198407
-0.023492336 -0.068517104 -0.036097858
-0.019975621 -0.068654552 -0.036167007
-0.01647881 -0.06880267 -0.036136337
-0.015589473 -0.068642303 -0.036128573
-0.015234238 -0.068922184 -0.036125407
-0.01495208 -0.068754807 -0.036022976
-0.013900176 -0.068993166 -0.036013715
-0.012226794 -0.068880469 -0.036049068
-0.029198624 -0.068151802 -0.036247894
-0.027683929 -0.068267629 -0.036234606
-0.023798337 -0.068429969 -0.036200523
-0.023005391 -0.068253145 -0.036193617
-0.021406297 -0.068255521 -0.03612962
-0.016152017 -0.068072557 -0.036033615
-0.015996624 -0.068118244 -0.036132239
-0.0084001143 -0.068410635 -0.036065616
-0.0070926156 -0.068280518 -0.036054179
-0.0060048117 -0.068176791 -0.036044672
-0.0023162882 -0.068217799 -0.036012337
-0.0018249517 -0.068022847 -0.036008071
-0.031321995 -0.067670815 -0.036116287
-0.027124679 -0.0675897 -0.036229827
-0.024055423 -0.06752456 -0.036202956
-0.023605483 -0.067908734 -0.036098965
-0.022918938 -0.067814209 -0.036092959
-0.019731747 -0.067663185 -0.036165055
-0.019260632 -0.06763576 -0.036160931
-0.014706964 -0.067629494 -0.036021031
-0.010347212 -0.067846239 -0.036082786
-0.0093022641 -0.06769678 -0.036073655
-0.004459559 -0.067565978 -0.036031239
-0.0037554591 -0.067654356 -0.036025055
-0.030161558 -0.06746792 -0.036156502
-0.029761044 -0.067389831 -0.036252964
-0.028814595 -0.067152873 -0.036144752
-0.025811361 -0.067204982 -0.036118422
-0.024223696 -0.067307822 -0.036104493
-0.023143325 -0.067487806 -0.036194958
-0.022235945 -0.067208856 -0.03618706
-0.0217067 -0.067241758 -0.036182418
-0.020713639 -0.067184761 -0.036173739
-0.019556507 -0.06720753 -0.036063604
-0.017650951 -0.067491099 -0.036146849
-0.016099144 -0.067101955 -0.036033325
-0.013772477 -0.067148246 -0.036079597
-0.013183735 -0.067200899 -0.036057763
-0.012725611 -0.067114033 -0.036003761
-0.0062246285 -0.06727083 -0.036046762
-0.0043890402 -0.067315593 -0.036030669
-0.0012524454 -0.06734702 -0.03600318
-0.031329688 -0.066826299 -0.036215879
-0.030460779 -0.066589721 -0.036159281
-0.028240502 -0.066621192 -0.036239784
-0.025690684 -0.066695124 -0.036117464
-0.023963017 -0.066945232 -0.036102273
-0.022863224 -0.066556171 -0.036192685
-0.020773774 -0.066930294 -0.036174309
-0.018265251 -0.066527531 -0.036102414
-0.017832285 -0.066981204 -0.036148537
-0.017150624 -0.066806443 -0.036042593
-0.016424742 -0.066537313 -0.036036283
-0.014649255 -0.066530153 -0.036120728
-0.013495023 -0.06678772 -0.03601056
-0.007937097 -0.066519484 -0.036061913
-0.0074890563 -0.066849947 -0.036057923
-0.005232966 -0.066509053 -0.036038216
-0.031772394 -0.066211857 -0.036033109
-0.031269718 -0.066179201 -0.036220185
-0.029004501 -0.066192105 -0.036246553
-0.02456508 -0.066157542 -0.036107685
-0.023543281 -0.066160485 -0.036098745
-0.02050576 -0.066061273 -0.036072128
-0.019532183 -0.066214658 -0.036163561
-0.019384339 -0.066133112 -0.036062315
-0.018829953 -0.066365764 -0.036057401
-0.014128067 -0.06615179 -0.036016226
-0.0125257 -0.066122413 -0.036002189
-0.0081200134 -0.066415846 -0.036063533
-0.030321343 -0.065891951 -0.03625815
-0.02691048 -0.065643214 -0.036128342
-0.025716271 -0.065949157 -0.036217779
-0.022626873 -0.065814354 -0.036090769
-0.022352075 -0.065737858 -0.036088374
-0.018669501 -0.065633208 -0.036156114
-0.015654882 -0.065507457 -0.036129732
-0.015107712 -0.06565351 -0.036024902
-0.013752431 -0.065616988 -0.036013026
-0.012514235 -0.065537035 -0.036102206
-0.011305588 -0.065629303 -0.036091596
-0.010985035 -0.06564711 -0.036088783
-0.010187522 -0.065910242 -0.036081746
-0.0099698761 -0.06581834 -0.036079854
-0.0093290936 -0.065954208 -0.036074214
-0.0077731074 -0.06563884 -0.036060639
-0.0033515685 -0.065821022 -0.036021858
-0.0020414586 -0.065603986 -0.036010414
-0.0011228714 -0.065988883 -0.036002297
-0.029891107 -0.065113395 -0.036154557
-0.026767567 -0.065213971 -0.036127169
-0.026403911 -0.065473221 -0.036123935
-0.025767155 -0.065228283 -0.03621836
-0.023871541 -0.065033503 -0.036201783
-0.021946525 -0.065314658 -0.036084898
-0.021304004 -0.065144397 -0.036179278
-0.012026631 -0.065485045 -0.036097944
-0.0050802263 -0.065097578 -0.03603714
-0.0046755513 -0.065027557 -0.036033608
-0.0037375977 -0.065228514 -0.036025353
-0.030262688 -0.064780213 -0.036207855
-0.029042918 -0.064685866 -0.036147203
-0.028910067 -0.064515583 -0.036146071
-0.028086517 -0.064675219 -0.036138825
-0.026216745 -0.06477955 -0.036122423
-0.020420672 -0.064696088 -0.036071632
-0.019541394 -0.064658634 -0.036063936
-0.018548109 -0.064773187 -0.036155194
-0.016567012 -0.064954527 -0.036137823
-0.015894067 -0.064724304 -0.036131971
-0.015209407 -0.064880952 -0.036125943
-0.013414995 -0.06483499 -0.036010217
-0.011665845 -0.064633541 -0.036094941
-0.004478693 -0.064759329 -0.036031932
-0.0031883975 -0.064832978 -0.036020614
-0.031510435 -0.064356238 -0.036093924
-0.028313071 -0.064394094 -0.036240824
-0.024151674 -0.064287856 -0.036204387
-0.02233169 -0.064112015 -0.036155131
-0.020701185 -0.064187638 -0.036174174
-0.019663967 -0.064492643 -0.036165014
-0.019096663 -0.064223886 -0.036060117
-0.018833637 -0.064437203 -0.03615775
-0.017734481 -0.064200446 -0.036148168
-0.017204501 -0.064071193 -0.036143553
-0.016478363 -0.064383335 -0.036137145
-0.015777096 -0.064120613 -0.036081057
-0.015246568 -0.064059958 -0.03612642
-0.014397743 -0.064317241 -0.03611894
-0.013693986 -0.064312235 -0.03611277
-0.013312975 -0.064387225 -0.036109418
-0.0093701612 -0.064221621 -0.036074899
-0.031367801 -0.063975729 -0.036113761
-0.030688033 -0.063592523 -0.036261279
-0.028475732 -0.063772045 -0.036142401
-0.027805932 -0.06358324 -0.036136568
-0.02745875 -0.063826412 -0.036133479
-0.026744833 -0.06373091 -0.036127239
-0.026235282 -0.063817248 -0.03617274
-0.023489229 -0.063752621 -0.036198676
-0.020442178 -0.063868724 -0.036171965
-0.019474896 -0.063522592 -0.036163546
-0.017194506 -0.063706033 -0.036143526
-0.015637055 -0.063676909 -0.036029924
-0.010661384 -0.063877776 -0.036086276
-0.027849695 -0.063200817 -0.036236979
-0.025978299 -0.063065037 -0.036120646
-0.024885293 -0.063285477 -0.036111027
-0.02264525 -0.063062519 -0.036091425
-0.020407403 -0.063464537 -0.036071748
-0.019976221 -0.063002765 -0.036168031
-0.01868365 -0.063197315 -0.036056682
-0.01728476 -0.063010044 -0.036144435
-0.014669162 -0.063324511 -0.036121491
-0.013084829 -0.063483134 -0.036007561
-0.009608889 -0.063098297 -0.036077201
-0.0081403796 -0.06310752 -0.036064327
-0.0073607005 -0.063233659 -0.036057472
-0.0040930775 -0.063359946 -0.036028814
-0.030783121 -0.062826261 -0.036254786
-0.029335003 -0.062608846 -0.036150139
-0.026823144 -0.062581517 -0.036228102
-0.025815252 -0.062616549 -0.036119297
-0.023647279 -0.062746331 -0.036150254
-0.023348927 -0.062851012 -0.036097646
-0.019824173 -0.062743343 -0.036066771
-0.019184003 -0.062609039 -0.036061175
-0.016706055 -0.062865265 -0.036039405
-0.013579812 -0.062678367 -0.036012068
-0.012777713 -0.062824525 -0.036004998
-0.011867371 -0.06252297 -0.036097098
-0.010695351 -0.062520728 -0.036086828
-0.0087371022 -0.062866226 -0.036069602
-0.0050612176 -0.062539116 -0.036037449
-0.0039237952 -0.062728278 -0.036027446
-0.001490151 -0.062636867 -0.036006138
-0.031540226 -0.062085144 -0.036087472
-0.030794403 -0.062099941 -0.036154214
-0.029407458 -0.062054627 -0.036250837
-0.028681964 -0.062365882 -0.036244426
-0.027994636 -0.062011052 -0.036238462
-0.024675831 -0.062414799 -0.036109351
-0.023895182 -0.062138923 -0.036202516
-0.022395412 -0.062122762 -0.036189392
-0.021165313 -0.062206045 -0.036078602
-0.016392842 -0.062433042 -0.036036745
-0.014574227 -0.06221626 -0.036120847
-0.013834615 -0.062146015 -0.036064398
-0.010813262 -0.062439773 -0.036087878
-0.010250982 -0.062353633 -0.036082964
-0.0039720121 -0.062224843 -0.036027964
-0.0030262228 -0.062208556 -0.036019679
-0.031693257 -0.061787408 -0.036086321
-0.031273037 -0.061939999 -0.036170743
-0.030544477 -0.061962228 -0.036160856
-0.028103136 -0.061843831 -0.036139484
-0.022832731 -0.061701465 -0.036093332
-0.022290912 -0.061897084 -0.036088541
-0.021999722 -0.061707534 -0.036186002
-0.02013107 -0.061783805 -0.036069624
-0.018827621 -0.061772995 -0.036108203
-0.01672117 -0.061602846 -0.036039773
-0.015662426 -0.061543096 -0.036130488
-0.013995428 -0.061734162 -0.036015883
-0.010215321 -0.061719988 -0.036082767
-0.0096442513 -0.061894163 -0.036077734
-0.0079563912 -0.061980698 -0.036062922
-0.0047956151 -0.061701335 -0.036035281
-0.002710358 -0.061687708 -0.036017008
-0.031187773 -0.061293475 -0.036226809
-0.030316861 -0.061232273 -0.036158994
-0.028939649 -0.061071422 -0.036246918
-0.028062511 -0.061403915 -0.036139209
-0.027925581 -0.06109149 -0.036238026
-0.022636674 -0.061107658 -0.036091719
-0.019895092 -0.061344691 -0.036067631
-0.017486319 -0.061314669 -0.036146533
-0.012594145 -0.061087124 -0.036103707
-0.0076631512 -0.061195709 -0.036060505
-0.0074646166 -0.061216652 -0.036058757
-0.0066000698 -0.061128385 -0.036051195
-0.0038814456 -0.061071187 -0.036027387
-0.002795324 -0.06112944 -0.036017857
-0.031220019 -0.06050095 -0.036124736
-0.030700341 -0.060903624 -0.036260918
-0.030213207 -0.060900576 -0.036258109
-0.027234102 -0.060604341 -0.036182076
-0.026002282 -0.060706392 -0.036221251
-0.024718547 -0.060911778 -0.03620996
-0.022491364 -0.060652126 -0.03609053
-0.021312099 -0.060984172 -0.036180101
-0.02061029 -0.060578998 -0.036074039
-0.019123306 -0.06068733 -0.036060993
-0.017924888 -0.060577258 -0.036050521
-0.016516268 -0.060713898 -0.036038142
-0.01453769 -0.060658842 -0.036020808
-0.014391191 -0.060715653 -0.036119498
-0.013681056 -0.060761042 -0.036013283
-0.0097617423 -0.060982071 -0.03607893
-0.0050771725 -0.060531557 -0.036037967
-0.0019097447 -0.060676195 -0.03601018
-0.0010572993 -0.060947474 -0.036002662
-0.031798333 -0.060364276 -0.03613057
-0.031145889 -0.060269229 -0.036229923
-0.030698305 -0.060006753 -0.036261223
-0.030166475 -0.060392398 -0.03620781
-0.028537292 -0.060354639 -0.036243521
-0.02835533 -0.0601345 -0.036241967
-0.027944589 -0.060421012 -0.036138356
-0.026519397 -0.060493942 -0.036125854
-0.025702247 -0.060479816 -0.036218666
-0.022024812 -0.060114432 -0.036086537
-0.021197129 -0.060212113 -0.036079265
-0.020700317 -0.060454845 -0.036074854
-0.017815346 -0.060420863 -0.036149558
-0.015964234 -0.060130846 -0.036033407
-0.013394712 -0.060296353 -0.036010854
-0.010680349 -0.060315192 -0.036087088
-0.0092731677 -0.060092885 -0.03607481
-0.0056747319 -0.060384016 -0.03604323
-0.03124335 -0.059882022 -0.03612322
-0.030073529 -0.059578825 -0.036157161
-0.029158521 -0.059727781 -0.036249079
-0.027755685 -0.059787042 -0.036136813
-0.027118009 -0.059596267 -0.036131263
-0.026240386 -0.059860401 -0.0361735
-0.0247554 -0.059739202 -0.036110532
-0.024483092 -0.05967208 -0.036108159
-0.02376204 -0.0595726 -0.03620182
-0.02198014 -0.059837267 -0.036086202
-0.020649321 -0.059706923 -0.036141202
-0.020219741 -0.059832662 -0.036170732
-0.017271399 -0.059902828 -0.03614489
-0.015307736 -0.059882112 -0.03612769
-0.013500288 -0.059895068 -0.036011852
-0.012654679 -0.059691206 -0.036104467
-0.012281219 -0.059866838 -0.036101166
-0.0052282959 -0.059543755 -0.036039472
-0.0046997131 -0.059596352 -0.036034834
-0.0037828574 -0.059709158 -0.036026776
-0.03124316 -0.059068579 -0.03612338
-0.030676754 -0.059235089 -0.036208794
-0.030340059 -0.059162825 -0.036259536
-0.02953887 -0.059048865 -0.036152571
-0.029330794 -0.059454244 -0.036150679
-0.028196296 -0.059248865 -0.036240738
-0.025258819 -0.059099175 -0.036215026
-0.023260534 -0.059324436 -0.036097512
-0.022638699 -0.05947515 -0.036092035
-0.019672301 -0.059348576 -0.036116026
-0.016536059 -0.059446115 -0.036138538
-0.016382344 -0.059038393 -0.036137257
-0.014945794 -0.059102181 -0.036024667
-0.012832744 -0.05909536 -0.036106136
-0.0040334156 -0.059294306 -0.036029048
-0.0021598339 -0.059070662 -0.036012672
-0.0011804034 -0.059311397 -0.036004044
-0.031538557 -0.058991641 -0.036190797
-0.025059009 -0.058857325 -0.036213323
-0.023875123 -0.058519896 -0.03610304
-0.021748351 -0.058793869 -0.036184311
-0.02030226 -0.058714606 -0.036071699
-0.019424796 -0.05857436 -0.036064018
-0.017112568 -0.058512472 -0.036043771
-0.016720267 -0.058885343 -0.03604028
-0.014310021 -0.058891073 -0.036119133
-0.013041151 -0.058776803 -0.036008038
-0.012836335 -0.058853425 -0.036106214
-0.012360735 -0.058828644 -0.036002062
-0.011076343 -0.058557361 -0.036090847
-0.0089871688 -0.058799226 -0.036072526
-0.0077097253 -0.058811143 -0.036061339
-0.0058911219 -0.058775302 -0.036045421
-0.0041436874 -0.058899298 -0.036030088
-0.028797027 -0.058382202 -0.036146194
-0.026020067 -0.058072567 -0.036221877
-0.0246005 -0.058363877 -0.036109425
-0.024448352 -0.058092259 -0.036208112
-0.021248117 -0.058302421 -0.036180019
-0.020346902 -0.058209367 -0.036122162
-0.018820498 -0.058259949 -0.036058776
-0.015101615 -0.058143597 -0.036026217
-0.014801091 -0.05824092 -0.036023561
-0.013742374 -0.058319323 -0.036114264
-0.013496206 -0.058069266 -0.03601215
-0.0094776126 -0.05847865 -0.03607687
-0.0071494412 -0.058184881 -0.036056545
-0.0051124357 -0.058269463 -0.036038693
-0.03011715 -0.05794879 -0.036157839
-0.028517975 -0.057777815 -0.036243822
-0.028371843 -0.057638951 -0.036142606
-0.02782071 -0.057807442 -0.036237702
-0.026786173 -0.057723705 -0.036178675
-0.024827842 -0.057765119 -0.036211494
-0.021054853 -0.057941187 -0.036078438
-0.01956873 -0.057647295 -0.036065467
-0.019263348 -0.057608217 -0.036162771
-0.017799323 -0.057551771 -0.036049947
-0.01722851 -0.057924006 -0.036044877
-0.015981534 -0.0576602 -0.036133979
-0.013803489 -0.057802815 -0.0360649
-0.012968864 -0.05781256 -0.036107577
-0.012209889 -0.057631284 -0.036100946
-0.01022219 -0.057884358 -0.036083482
-0.0086701186 -0.057513833 -0.036069967
-0.0073685665 -0.0575382 -0.036058571
-0.0022592815 -0.057758436 -0.036013789
-0.028693052 -0.057283539 -0.036245443
-0.027805945 -0.057140816 -0.036237694
-0.026235126 -0.057225235 -0.036173932
-0.025898192 -0.05729419 -0.036120992
-0.025184091 -0.05729685 -0.036114734
-0.02456433 -0.05731415 -0.036109298
-0.024309674 -0.057275992 -0.036207043
-0.023697827 -0.057280906 -0.036101714
-0.023478765 -0.057031546 -0.03609984
-0.022164878 -0.057367727 -0.036088265
-0.021018373 -0.05738993 -0.036078215
-0.019669874 -0.057032011 -0.036066465
-0.01918193 -0.057433359 -0.036162093
-0.018647712 -0.05729736 -0.036057442
-0.011603324 -0.057493791 -0.036095656
-0.011165552 -0.057049252 -0.036091898
-0.0047277464 -0.057385784 -0.036035482
-0.0043627666 -0.057481058 -0.036032271
-0.0016006941 -0.057073619 -0.036008146
-0.0011269774 -0.057114191 -0.036003985
-0.031200387 -0.056794174 -0.036126796
-0.029565526 -0.05690841 -0.036153197
-0.029432682 -0.056742866 -0.036252026
-0.028260143 -0.056750175 -0.036241744
-0.0272635 -0.056663491 -0.03623303
-0.02569491 -0.056547109 -0.036219299
-0.024108116 -0.056910057 -0.036205344
-0.022631612 -0.056753617 -0.036192432
-0.022168025 -0.056646623 -0.036088426
-0.018037785 -0.056777004 -0.036052186
-0.017780781 -0.056566305 -0.036049969
-0.015761795 -0.056792773 -0.036132209
-0.015102728 -0.056799188 -0.036026485
-0.014051753 -0.056618907 -0.036017299
-0.013409059 -0.056785479 -0.036061633
-0.01256177 -0.056568101 -0.036004238
-0.0061013973 -0.056699298 -0.036047623
-0.005352227 -0.056885637 -0.036041033
-0.0014476785 -0.056823395 -0.036006853
-0.026898297 -0.056179661 -0.036129959
-0.021943122 -0.056445904 -0.036086489
-0.019085437 -0.0562094 -0.036061496
-0.018181443 -0.056419227 -0.036153506
-0.01699375 -0.056235489 -0.036043126
-0.01390935 -0.056232199 -0.036016125
-0.012785235 -0.056362309 -0.036106251
-0.012089076 -0.056200117 -0.036000159
-0.011650771 -0.056169614 -0.036096331
-0.011438604 -0.056165233 -0.036094472
-0.026557863 -0.055595636 -0.036127083
-0.023223922 -0.055731174 -0.036097847
-0.020824896 -0.055823222 -0.036176763
-0.019303791 -0.055906355 -0.036063462
-0.018747848 -0.055625137 -0.036158592
-0.017481711 -0.055675831 -0.036047518
-0.014253395 -0.055550378 -0.036019258
-0.012690917 -0.055989385 -0.036005478
-0.0086464668 -0.055612352 -0.036070086
-0.0066810623 -0.055728115 -0.036052853
-0.005347685 -0.055673793 -0.036041196
-0.0034230743 -0.05559073 -0.036024369
-0.0021486147 -0.055606104 -0.036013212
-0.030791417 -0.0554372 -0.036255565
-0.027381947 -0.055042416 -0.036234364
-0.025462059 -0.05548152 -0.036217459
-0.024751386 -0.055039372 -0.036211308
-0.023754682 -0.055266906 -0.03620255
-0.022770364 -0.055321041 -0.036193911
-0.017038491 -0.055425439 -0.036143661
-0.015346751 -0.055312961 -0.036028855
-0.013856009 -0.055382583 -0.036015816
-0.01247378 -0.055085205 -0.036103733
-0.01088565 -0.055235438 -0.036089804
-0.0037126141 -0.055153251 -0.036026977
-0.003444151 -0.055035241 -0.036024645
-0.0022580831 -0.055142891 -0.036009692
-0.030554805 -0.054923587 -0.036262192
-0.029787464 -0.054601979 -0.036222201
-0.029182646 -0.054851487 -0.036150213
-0.027628286 -0.054981083 -0.036236532
-0.02716491 -0.054589905 -0.03618256
-0.025287682 -0.054555997 -0.036116138
-0.023924608 -0.054819003 -0.036204115
-0.023085754 -0.054651111 -0.03609683
-0.022652287 -0.054713786 -0.036143005
-0.020960331 -0.054552302 -0.036078222
-0.019515119 -0.054949425 -0.036065489
-0.018973107 -0.054951463 -0.036160689
-0.016662937 -0.05459071 -0.036040541
-0.013550146 -0.054667883 -0.036013257
-0.01133815 -0.054955721 -0.036093827
-0.0090328036 -0.054512031 -0.036073677
-0.0086771073 -0.054784521 -0.036070507
-0.006572241 -0.05476917 -0.036052067
-0.006402289 -0.054900754 -0.036050551
-0.031467527 -0.054325946 -0.036105722
-0.030775847 -0.054100625 -0.036156986
-0.029292626 -0.054088075 -0.03625128
-0.027808208 -0.054016061 -0.036238283
-0.024401587 -0.054474801 -0.036108389
-0.022507276 -0.054032464 -0.036191843
-0.022064118 -0.054026097 -0.03608799
-0.021944532 -0.054108661 -0.036186896
-0.019238176 -0.054171741 -0.036163155
-0.017685961 -0.054128531 -0.036049612
-0.016763311 -0.054272175 -0.03604148
-0.016120171 -0.054032464 -0.03603588
-0.014831732 -0.054349389 -0.036074508
-0.012549045 -0.054446079 -0.036104489
-0.012436366 -0.054091502 -0.036003616
-0.010397735 -0.054254849 -0.036085717
-0.0092419526 -0.0543193 -0.036075555
-0.0076471744 -0.054354407 -0.036061555
-0.0047926633 -0.054153804 -0.036036592
-0.028203033 -0.053733617 -0.036191814
-0.027169397 -0.053748652 -0.036232736
-0.026604174 -0.053994291 -0.036227737
-0.020007022 -0.053708546 -0.036169983
-0.019229785 -0.053800348 -0.036163151
-0.017271738 -0.053847231 -0.036046032
-0.015707357 -0.053915795 -0.036132261
-0.015230381 -0.053532109 -0.036128148
-0.014316166 -0.053572118 -0.036020137
-0.0097052203 -0.053685568 -0.036079753
-0.0084577948 -0.053619966 -0.036068812
-0.0055283057 -0.053729627 -0.036043104
-0.031582296 -0.053423107 -0.036181752
-0.030819563 -0.053057984 -0.036154117
-0.028555032 -0.053467788 -0.036244929
-0.027028907 -0.053058188 -0.03623163
-0.025616517 -0.053178094 -0.036219232
-0.025275277 -0.053056706 -0.036116302
-0.024740372 -0.053377826 -0.036111556
-0.02095291 -0.05321293 -0.036078401
-0.016834609 -0.053188436 -0.0360923
-0.015833268 -0.053419281 -0.036033478
-0.012816647 -0.053194158 -0.036057062
-0.01241836 -0.053022176 -0.036003631
-0.010187933 -0.053199239 -0.036084056
-0.0091846092 -0.053485177 -0.03607522
-0.032236885 -0.052943494 -0.036029384
-0.029362999 -0.052501064 -0.036252186
-0.0289852 -0.052639678 -0.036248848
-0.02831628 -0.052638873 -0.036143027
-0.025710352 -0.052832056 -0.036120158
-0.024112456 -0.052690696 -0.036156159
-0.023778774 -0.052972976 -0.036203176
-0.020451348 -0.052577749 -0.036074124
-0.016898157 -0.052706599 -0.036142915
-0.0088538583 -0.052965973 -0.036072418
-0.0065283822 -0.052776463 -0.036007561
-0.031627405 -0.05221137 -0.036069214
-0.027248081 -0.052182484 -0.036133751
-0.024256708 -0.052161388 -0.036207501
-0.023225501 -0.052388672 -0.036098465
-0.02068772 -0.052081492 -0.036176249
-0.019712696 -0.052415147 -0.03616764
-0.018758111 -0.052408017 -0.036109298
-0.017410863 -0.052145895 -0.036047563
-0.016376542 -0.052199315 -0.036038488
-0.015122214 -0.052270874 -0.036127456
-0.014240193 -0.05239113 -0.03601969
-0.013247848 -0.052095242 -0.036111031
-0.012920281 -0.05202911 -0.036008183
-0.011939182 -0.052366987 -0.036099516
-0.0073754201 -0.052464027 -0.036059543
-0.031833239 -0.051533125 -0.036021836
-0.027834721 -0.051899701 -0.036238901
-0.026568288 -0.051796775 -0.036227819
-0.02623651 -0.051781911 -0.036124956
-0.025518291 -0.051613219 -0.036118694
-0.025188545 -0.051703129 -0.036215745
-0.023538541 -0.051717494 -0.036201283
-0.022183478 -0.051802438 -0.036139429
-0.021504741 -0.051898919 -0.036183443
-0.020181298 -0.051720586 -0.036171876
-0.019124748 -0.051600322 -0.036062676
-0.018991929 -0.051708676 -0.036061492
-0.01751258 -0.051550705 -0.036148511
-0.017055929 -0.05186611 -0.036044501
-0.013676725 -0.05176327 -0.03601487
-0.0082095684 -0.051694542 -0.036067013
-0.030700319 -0.051385678 -0.036162768
-0.027345598 -0.051392142 -0.036134746
-0.026410667 -0.051484946 -0.0362265
-0.025658682 -0.051208809 -0.036119998
-0.023991985 -0.051178083 -0.036205355
-0.022205181 -0.051353306 -0.036139697
-0.020437473 -0.051421497 -0.036074214
-0.019987145 -0.051054537 -0.036170296
-0.014379013 -0.051382717 -0.036021106
-0.013715329 -0.051251844 -0.036015306
-0.0094406381 -0.051221617 -0.036077842
-0.0083606094 -0.051410198 -0.036068372
-0.031738043 -0.050709158 -0.036146306
-0.028191112 -0.050923869 -0.036242202
-0.026876729 -0.050854851 -0.036130738
-0.024727687 -0.050739754 -0.036111929
-0.024358189 -0.05067835 -0.036108702
-0.023580549 -0.050845739 -0.036101855
-0.022301728 -0.050587408 -0.036090698
-0.021611463 -0.050693873 -0.036184601
-0.019422723 -0.050543875 -0.036165442
-0.017007776 -0.050505619 -0.036144275
-0.015492655 -0.050865762 -0.036030985
-0.01428173 -0.050911412 -0.03612034
-0.011817028 -0.050910797 -0.036098704
-0.01098767 -0.050933931 -0.036091436
-0.0084887762 -0.050873019 -0.036069579
-0.031322505 -0.050232559 -0.036219433
-0.029083988 -0.050303936 -0.036183499
-0.027586842 -0.050408352 -0.036237005
-0.025411708 -0.050227884 -0.036151331
-0.024184728 -0.050228201 -0.036207221
-0.021989264 -0.050001584 -0.03618804
-0.019781252 -0.050120108 -0.0360687
-0.016584296 -0.050276045 -0.036140606
-0.012026952 -0.050295148 -0.03610066
-0.031683594 -0.049765848 -0.036056709
-0.030086346 -0.049820468 -0.036259014
-0.027185651 -0.049791388 -0.036233597
-0.026883941 -0.049774893 -0.036130995
-0.025904389 -0.049638171 -0.036222398
-0.024308803 -0.049734842 -0.036141757
-0.021207439 -0.049772296 -0.03618123
-0.019568972 -0.049872704 -0.036066882
-0.019319244 -0.049543761 -0.03616472
-0.018165689 -0.049881443 -0.036054585
-0.017687012 -0.049826942 -0.036150359
-0.017390152 -0.049710955 -0.03604782
-0.016354833 -0.049735554 -0.036138698
-0.015648682 -0.049509041 -0.036032598
-0.015376888 -0.049899921 -0.036130093
-0.014147831 -0.049786881 -0.036119379
-0.029919324 -0.049225777 -0.03615769
-0.026740804 -0.049159914 -0.036196496
-0.025751844 -0.049158856 -0.036221147
-0.023703817 -0.049237393 -0.036103226
-0.020463403 -0.04938883 -0.036174778
-0.018512812 -0.049327046 -0.03615769
-0.018330017 -0.049094252 -0.036156129
-0.014055254 -0.049021214 -0.036018729
-0.012166983 -0.049293004 -0.036102079
-0.01091659 -0.049326781 -0.036091104
-0.031357121 -0.04886004 -0.036117289
-0.0306539 -0.048813742 -0.036229104
-0.025725782 -0.048867509 -0.036121015
-0.025396204 -0.048859954 -0.036118127
-0.018650973 -0.048536919 -0.036059082
-0.013241399 -0.04875752 -0.036011625
-0.012239213 -0.048526369 -0.036002871
-0.011959341 -0.04868437 -0.036100376
-0.030476799 -0.048100285 -0.036262747
-0.029729595 -0.048331413 -0.036156192
-0.027476907 -0.048261538 -0.036236431
-0.024178023 -0.048152685 -0.036107581
-0.018553697 -0.048013411 -0.036058325
-0.011931173 -0.048216142 -0.036000226
-0.01009834 -0.048156522 -0.036084145
-0.031330086 -0.047892671 -0.036219336
-0.028553961 -0.047536101 -0.036146037
-0.02761317 -0.047563065 -0.03623775
-0.024057798 -0.047719538 -0.036206562
-0.02361891 -0.047758739 -0.036102749
-0.021567158 -0.047922842 -0.036084741
-0.020780563 -0.047972709 -0.036077842
-0.020182114 -0.047832292 -0.036172599
-0.019765073 -0.047620587 -0.036118999
-0.019262481 -0.047517084 -0.036064625
-0.017783057 -0.047763109 -0.036151581
-0.016750131 -0.047570899 -0.036092579
-0.015626092 -0.047816582 -0.036132663
-0.014584551 -0.047679935 -0.036123555
-0.013789382 -0.047910631 -0.036066569
-0.013355148 -0.047820002 -0.036062792
-0.012733627 -0.047946408 -0.036007322
-0.012186438 -0.047784317 -0.036102559
-0.031754512 -0.047161341 -0.036143169
-0.029771477 -0.047193252 -0.036256731
-0.028221235 -0.047070079 -0.036143206
-0.027482577 -0.047482535 -0.036236618
-0.026507754 -0.047340728 -0.036128141
-0.022402767 -0.047272183 -0.036092184
-0.020714577 -0.047328729 -0.03617736
-0.019103333 -0.047490001 -0.036063239
-0.018347522 -0.047077775 -0.03605669
-0.01675418 -0.047402944 -0.036142625
-0.015990388 -0.047359526 -0.036135938
-0.014278665 -0.047286753 -0.036020998
-0.01302214 -0.047090147 -0.03610998
-0.012670204 -0.047223505 -0.036006916
-0.012408394 -0.047138363 -0.036037963
-0.011555042 -0.047306158 -0.036097102
-0.031631805 -0.046649992 -0.036171596
-0.030763119 -0.046572883 -0.036259174
-0.030070117 -0.046994742 -0.036159419
-0.027451392 -0.04689775 -0.036236454
-0.025829852 -0.046518888 -0.036222309
-0.023229083 -0.046945609 -0.036199443
-0.022495626 -0.046981286 -0.036193009
-0.020387378 -0.046925955 -0.036174566
-0.017047765 -0.04693418 -0.036095306
-0.015936527 -0.046981283 -0.036035582
-0.012637341 -0.046546478 -0.036106709
-0.01111686 -0.046743765 -0.036093365
-0.031828996 -0.046167079 -0.036126163
-0.03111162 -0.046126593 -0.036234923
-0.030776162 -0.046466816 -0.036158368
-0.028673008 -0.046064112 -0.036247313
-0.025968004 -0.04608028 -0.036223602
-0.023000374 -0.046304177 -0.036197558
-0.021630194 -0.046303306 -0.036185559
-0.017746918 -0.046453714 -0.036051542
-0.015024699 -0.046086852 -0.036127709
-0.012597155 -0.046112545 -0.036106423
-0.012144525 -0.046161056 -0.036002502
-0.030664105 -0.045758091 -0.036260299
-0.030062435 -0.045888856 -0.036259521
-0.025088871 -0.045652427 -0.036116015
-0.019550676 -0.045616444 -0.036167473
-0.017898411 -0.045914657 -0.036052965
-0.015686672 -0.045803875 -0.036033608
-0.015292667 -0.045956567 -0.036030121
-0.013549561 -0.045818135 -0.036014877
-0.012040263 -0.045673411 -0.036101639
-0.011850502 -0.045814406 -0.036066636
-0.030268276 -0.045074932 -0.036211487
-0.028976239 -0.04525163 -0.036250118
-0.026573829 -0.045470718 -0.036229022
-0.025816267 -0.045221612 -0.03617245
-0.024809163 -0.045358803 -0.036213577
-0.022271011 -0.045291763 -0.036141369
-0.021300662 -0.045368072 -0.036182843
-0.020254023 -0.045400321 -0.036073696
-0.019836117 -0.045151051 -0.036170058
-0.019426502 -0.045421369 -0.036066443
-0.018756861 -0.045407336 -0.036160551
-0.01800327 -0.045158509 -0.036153991
-0.016066993 -0.045106672 -0.036037065
-0.014922819 -0.045050319 -0.036127001
-0.012980332 -0.045026705 -0.036109976
-0.031248722 -0.044793651 -0.036225591
-0.029240597 -0.044664726 -0.036252543
-0.028733961 -0.044819441 -0.036248073
-0.026695631 -0.044619996 -0.036130279
-0.025726842 -0.04467487 -0.036121786
-0.025180161 -0.044662725 -0.036216952
-0.024094973 -0.044716045 -0.036207438
-0.023982866 -0.044607848 -0.036206473
-0.022903571 -0.044846181 -0.036196973
-0.022364359 -0.044734612 -0.036092311
-0.021563515 -0.044648476 -0.036085308
-0.021391131 -0.044559836 -0.036183771
-0.020926407 -0.044585377 -0.036079738
-0.019683765 -0.044787634 -0.036068812
-0.017182561 -0.044614762 -0.036146894
-0.016424544 -0.044591136 -0.036040291
-0.015256291 -0.044819355 -0.03612997
-0.013652906 -0.044768557 -0.036115926
-0.031366218 -0.0442717 -0.036113873
-0.030785829 -0.044302337 -0.036158092
-0.030202793 -0.044293415 -0.036211055
-0.028988795 -0.044043884 -0.036150478
-0.028199542 -0.04410328 -0.036243517
-0.025549952 -0.044425286 -0.036120281
-0.021096129 -0.044251852 -0.036131263
-0.020880653 -0.044226892 -0.036129389
-0.020375365 -0.044131659 -0.036124974
-0.018995371 -0.044188112 -0.036062889
-0.01808339 -0.044189751 -0.036054898
-0.01659194 -0.044474352 -0.036041781
-0.016044471 -0.0441982 -0.036136996
-0.014967056 -0.044190779 -0.036027595
-0.013401304 -0.044271097 -0.036013864
-0.010301138 -0.044479702 -0.036086641
-0.031594574 -0.043637156 -0.036180757
-0.030551612 -0.043803696 -0.036264185
-0.029266797 -0.043657042 -0.036202967
-0.027016778 -0.043848179 -0.036133237
-0.025330976 -0.043795474 -0.036118474
-0.022565067 -0.043982491 -0.036094204
-0.022187747 -0.043850467 -0.036090925
-0.021750361 -0.043610159 -0.036137111
-0.020656042 -0.043767579 -0.036077518
-0.019825976 -0.04390284 -0.036170196
-0.016030023 -0.043528322 -0.036136992
-0.015331509 -0.043918282 -0.036130797
-0.013068924 -0.043567076 -0.036011074
-0.012682509 -0.043966595 -0.036007617
-0.01175611 -0.043532085 -0.036099523
-0.011391338 -0.043895546 -0.03609626
-0.010796199 -0.043694679 -0.036091089
-0.0104358 -0.043900091 -0.036087926
-0.032049611 -0.043173842 -0.036075793
-0.0311919 -0.043233253 -0.036179859
-0.030822637 -0.043187384 -0.036255643
-0.030079424 -0.043420926 -0.036260121
-0.029995384 -0.043087754 -0.036259443
-0.029269401 -0.043108903 -0.036153108
-0.027915681 -0.043202184 -0.036241196
-0.023352392 -0.043295227 -0.036201186
-0.022990614 -0.043346588 -0.036098048
-0.020634046 -0.043459784 -0.036177352
-0.020424236 -0.043264735 -0.036175553
-0.019116409 -0.043194782 -0.036164109
-0.016449668 -0.043109827 -0.036040779
-0.015399506 -0.043277528 -0.036131509
-0.013643256 -0.043002222 -0.036016211
-0.012757599 -0.043438591 -0.036108319
-0.011502246 -0.043469612 -0.03609731
-0.010919989 -0.043466087 -0.036092203
-0.032268543 -0.042599492 -0.036018595
-0.029208377 -0.042558208 -0.036152676
-0.02785488 -0.042621139 -0.036190785
-0.024130907 -0.042988252 -0.036108106
-0.023856301 -0.042779632 -0.036105737
-0.020384928 -0.04251099 -0.03617534
-0.018566534 -0.042755961 -0.03615937
-0.017658904 -0.042595327 -0.036051467
-0.017007295 -0.042638406 -0.036145724
-0.01630364 -0.042917028 -0.036139503
-0.01593034 -0.042663388 -0.036136277
-0.013828603 -0.042569626 -0.036017913
-0.011476838 -0.042923659 -0.036097184
-0.010237826 -0.042915419 -0.03608634
-0.029121257 -0.042216647 -0.03625194
-0.028359247 -0.042443231 -0.036145255
-0.026511695 -0.042444434 -0.036129065
-0.026204269 -0.042178322 -0.036226381
-0.024766281 -0.042196888 -0.036113817
-0.02422937 -0.042152587 -0.036109123
-0.022776937 -0.042347785 -0.036196318
-0.020307466 -0.042438522 -0.036074705
-0.018894808 -0.042435534 -0.03606233
-0.018322267 -0.042048987 -0.036057383
-0.030026378 -0.041814875 -0.036159974
-0.029941954 -0.041890401 -0.036159225
-0.029327763 -0.041789837 -0.03615386
-0.028707314 -0.041556396 -0.036248431
-0.024435684 -0.041532036 -0.036111042
-0.021312946 -0.041844565 -0.036183581
-0.02060575 -0.041736517 -0.036177397
-0.01740928 -0.041669875 -0.036049452
-0.016571105 -0.041674621 -0.036142074
-0.015204683 -0.041916039 -0.036130052
-0.014760576 -0.04168877 -0.036126204
-0.014493737 -0.041670434 -0.036123864
-0.012418768 -0.04176005 -0.036005706
-0.011799808 -0.041762963 -0.036100231
-0.010550873 -0.041703507 -0.036089294
-0.029871564 -0.041482046 -0.036258649
-0.028992731 -0.041157555 -0.03615104
-0.028030992 -0.04113026 -0.036242582
-0.025817344 -0.04101105 -0.036223203
-0.025497947 -0.041403711 -0.03612037
-0.024811229 -0.041178878 -0.036181036
-0.022171579 -0.041036449 -0.03609129
-0.020685609 -0.041354932 -0.036078215
-0.019401932 -0.041385047 -0.036166936
-0.018178061 -0.041050978 -0.036056299
-0.016710803 -0.041236751 -0.036043406
-0.015697844 -0.041011572 -0.036034573
-0.011481909 -0.041092407 -0.036097568
-0.031641021 -0.040635288 -0.036068257
-0.030342445 -0.040556986 -0.036262944
-0.024509111 -0.040592685 -0.036211815
-0.024171 -0.040800795 -0.036158834
-0.023557313 -0.040612806 -0.036203474
-0.020587631 -0.040684279 -0.03617743
-0.019865222 -0.04064779 -0.036121137
-0.015828583 -0.040745068 -0.036085751
-0.015475398 -0.04050437 -0.036132686
-0.013708118 -0.040722456 -0.036017194
-0.027930673 -0.040209103 -0.03624187
-0.027187211 -0.040451042 -0.03623531
-0.026566574 -0.040280998 -0.036229905
-0.021357363 -0.04009011 -0.036184285
-0.020458847 -0.040201586 -0.036176391
-0.019189764 -0.040215194 -0.036165293
-0.017782219 -0.040210307 -0.036102973
-0.017401259 -0.04047893 -0.036149573
-0.016634222 -0.040117092 -0.036142915
-0.015793631 -0.04035379 -0.036135502
-0.01411385 -0.040430766 -0.036120765
-0.013727678 -0.040356465 -0.036017429
-0.012132035 -0.040486403 -0.036103379
-0.032312103 -0.039652888 -0.036001563
-0.030900359 -0.039995521 -0.036150873
-0.030064033 -0.039647639 -0.036260668
-0.027775275 -0.039804175 -0.036140617
-0.025567684 -0.039736133 -0.036121286
-0.025370013 -0.039848343 -0.036219493
-0.024783205 -0.039811537 -0.036214359
-0.023357337 -0.039684579 -0.036201883
-0.019946467 -0.039698929 -0.036072042
-0.016236978 -0.03982722 -0.036039513
-0.014271154 -0.03995211 -0.036022265
-0.012114878 -0.039548647 -0.036103398
-0.030810822 -0.039282028 -0.036257185
-0.025843674 -0.039035261 -0.036223795
-0.024130318 -0.03941039 -0.036108755
-0.023619756 -0.039235059 -0.03610431
-0.022348147 -0.039229739 -0.036193125
-0.019758899 -0.039116811 -0.036170457
-0.01716966 -0.039260283 -0.036047786
-0.016599206 -0.039136171 -0.036142789
-0.012743645 -0.039283816 -0.03607564
-0.012004915 -0.039014671 -0.03600258
-0.010958865 -0.039038613 -0.036093362
-0.0086698197 -0.039344624 -0.036073253
-0.031790707 -0.03890276 -0.036034033
-0.02832604 -0.038605452 -0.036212306
-0.027865265 -0.038644653 -0.036241584
-0.024759922 -0.038764086 -0.036214348
-0.024465747 -0.038581923 -0.0362118
-0.022818387 -0.038715452 -0.036197338
-0.02232118 -0.038677983 -0.036093034
-0.019423418 -0.038963716 -0.03606759
-0.018686719 -0.038777545 -0.036161147
-0.016944645 -0.038727745 -0.036045913
-0.015740002 -0.038753852 -0.036085337
-0.014298137 -0.038816765 -0.036122676
-0.013992501 -0.038585842 -0.036120038
-0.012040878 -0.038547989 -0.036102936
-0.0090279477 -0.038889609 -0.036076467
-0.031608351 -0.038091071 -0.036178622
-0.029056275 -0.038379177 -0.036202088
-0.027943723 -0.038242757 -0.036142375
-0.025611179 -0.03815978 -0.036221914
-0.022479372 -0.038397457 -0.036094472
-0.019813845 -0.038199432 -0.036171105
-0.018028118 -0.038232695 -0.036055498
-0.01744388 -0.038062483 -0.036050405
-0.01448982 -0.038425561 -0.036024459
-0.013397578 -0.038487114 -0.036114842
-0.012517475 -0.038246766 -0.036007207
-0.011635274 -0.038495075 -0.036099389
-0.031900737 -0.037689347 -0.036111195
-0.028811205 -0.037641417 -0.036250055
-0.026324868 -0.037735507 -0.036128283
-0.024904694 -0.037778761 -0.036115833
-0.020028437 -0.037977342 -0.036173023
-0.018919203 -0.037595529 -0.036163382
-0.017141115 -0.037828133 -0.036147781
-0.015772555 -0.037730154 -0.036085814
-0.014504242 -0.037980691 -0.036024667
-0.014372267 -0.037757322 -0.036073536
-0.013571175 -0.03761559 -0.036016557
-0.012575137 -0.037883256 -0.036007784
-0.011805044 -0.037957784 -0.036001019
-0.011140554 -0.037518792 -0.036095232
-0.031409655 -0.037095308 -0.036115784
-0.029217407 -0.037296101 -0.036153711
-0.022788662 -0.03714646 -0.036097407
-0.021016177 -0.037328377 -0.036181796
-0.020117592 -0.037433654 -0.036073949
-0.019273356 -0.037236169 -0.036133226
-0.018623019 -0.037389703 -0.036060862
-0.016209904 -0.03742848 -0.036139689
-0.015309749 -0.037339292 -0.036031842
-0.013194072 -0.037007499 -0.036113329
-0.012583413 -0.037230365 -0.036007974
-0.012210102 -0.037202634 -0.036004703
-0.010074605 -0.037364978 -0.036085915
-0.031092089 -0.036888417 -0.036138032
-0.030830313 -0.036650017 -0.036156386
-0.029787192 -0.036603525 -0.036208812
-0.029215911 -0.036714219 -0.036253769
-0.028300926 -0.036593705 -0.036245771
-0.026557703 -0.036595825 -0.036130533
-0.021384945 -0.036859289 -0.036185116
-0.018974103 -0.036580808 -0.036064085
-0.017877679 -0.03655412 -0.036054485
-0.017160509 -0.036539566 -0.036148187
-0.01652837 -0.036565334 -0.03604266
-0.016103487 -0.036532678 -0.036138922
-0.014747511 -0.036655378 -0.036027037
-0.014013291 -0.036589652 -0.036120586
-0.012568723 -0.036991898 -0.036007885
-0.012077823 -0.036761958 -0.036003627
-0.009697888 -0.036834199 -0.036082711
-0.0068488913 -0.036815234 -0.036057755
-0.0061290548 -0.036526851 -0.036051501
-0.028221415 -0.036107033 -0.036245164
-0.027180303 -0.036237668 -0.036136054
-0.026846653 -0.036327265 -0.036133111
-0.023971668 -0.036321379 -0.036207881
-0.023101117 -0.036345884 -0.036200248
-0.02124463 -0.036254875 -0.036084041
-0.020364756 -0.036428511 -0.036176253
-0.018550547 -0.036221616 -0.036060441
-0.018192308 -0.036231533 -0.036057297
-0.015917195 -0.03617803 -0.036087364
-0.012550654 -0.036471892 -0.036107786
-0.012024092 -0.036320891 -0.0361032
-0.011647992 -0.036289342 -0.036049929
-0.0098289531 -0.036045227 -0.036084004
-0.0056799189 -0.036132816 -0.036047641
-0.0053821914 -0.03611201 -0.036045037
-0.0296891 -0.035627201 -0.036258113
-0.028640619 -0.035640851 -0.036148958
-0.027621137 -0.035834797 -0.036239952
-0.026275095 -0.035717104 -0.036228176
-0.024696179 -0.035802159 -0.036114365
-0.023691896 -0.035760537 -0.036105573
-0.018105712 -0.035763208 -0.036056623
-0.017594883 -0.035954602 -0.036052115
-0.016020589 -0.03573871 -0.036038361
-0.014852196 -0.035669222 -0.036128111
-0.009975736 -0.035513639 -0.03608539
-0.005376609 -0.035605155 -0.036045082
-0.031864248 -0.035201903 -0.036120087
-0.028742906 -0.035344929 -0.036249876
-0.02685155 -0.035204872 -0.036233325
-0.026183072 -0.035095856 -0.036127523
-0.024552125 -0.035218358 -0.036213167
-0.022023998 -0.035342347 -0.036091037
-0.021900874 -0.035400867 -0.036189903
-0.019251946 -0.035016105 -0.036066808
-0.018554123 -0.03516911 -0.036060661
-0.017765434 -0.035107117 -0.036053766
-0.016662274 -0.035278965 -0.036144048
-0.016427699 -0.035165124 -0.036042035
-0.0078074336 -0.03533138 -0.036066435
-0.0040222583 -0.035308253 -0.036033303
-0.0036081141 -0.035041928 -0.03602973
-0.026778771 -0.034674719 -0.036232784
-0.026033942 -0.034774303 -0.036226235
-0.024011899 -0.034931678 -0.036108531
-0.023201367 -0.034649387 -0.036101479
-0.022770073 -0.034604225 -0.036197666
-0.021158986 -0.034915119 -0.036183491
-0.018081699 -0.0349859 -0.036056556
-0.01757337 -0.03490502 -0.036152098
-0.015661282 -0.034620352 -0.036135398
-0.015387075 -0.034907378 -0.036032956
-0.013778448 -0.034916334 -0.036018863
-0.011507208 -0.034764118 -0.036098953
-0.010622956 -0.034919109 -0.036091175
-0.010079279 -0.03467489 -0.036086455
-0.0057817986 -0.034524765 -0.03604883
-0.031601876 -0.034062035 -0.036129702
-0.030265749 -0.034254048 -0.036163449
-0.029706523 -0.034280017 -0.036158547
-0.028678857 -0.034227349 -0.036199532
-0.025284639 -0.034433294 -0.036219735
-0.024101049 -0.034029525 -0.03610947
-0.021990757 -0.034386445 -0.036090918
-0.021013748 -0.034199148 -0.036182348
-0.013576381 -0.034175064 -0.036117204
-0.012648217 -0.034457777 -0.03600904
-0.0039968765 -0.034238778 -0.036033276
-0.00051306491 -0.034229554 -0.036002707
-0.030507654 -0.033955559 -0.036265593
-0.030296259 -0.033698153 -0.036230464
-0.029404748 -0.033911791 -0.036155965
-0.027927492 -0.033980206 -0.036242977
-0.02626738 -0.033810496 -0.036228459
-0.025465023 -0.033616252 -0.036121503
-0.023703411 -0.033625081 -0.036206022
-0.02215787 -0.033734102 -0.03614248
-0.021269092 -0.033779539 -0.036084704
-0.02097407 -0.033764385 -0.036182079
-0.018321119 -0.033953935 -0.036058843
-0.016330941 -0.033751108 -0.036141422
-0.014064293 -0.033734266 -0.036121562
-0.013866468 -0.033854432 -0.036119804
-0.012083766 -0.033910949 -0.036004193
-0.011900905 -0.033780321 -0.036052596
-0.010659132 -0.033805951 -0.036091696
-0.0088876775 -0.033717342 -0.036076192
-0.0066985367 -0.033548612 -0.036057036
-0.0032761497 -0.033749681 -0.036027037
-0.0029964736 -0.033558097 -0.036024608
-0.0023526738 -0.033609826 -0.036018934
-0.030737575 -0.03316316 -0.036263429
-0.02987064 -0.033153661 -0.036260158
-0.026773432 -0.033360984 -0.036166333
-0.026280228 -0.033093162 -0.036178719
-0.025716459 -0.033213224 -0.036123775
-0.024340983 -0.033164743 -0.036111735
-0.023189478 -0.033044301 -0.036101665
-0.022283386 -0.033261493 -0.036193639
-0.02172013 -0.033442758 -0.03608872
-0.020770427 -0.033252709 -0.036180384
-0.01925594 -0.033257 -0.036167115
-0.018028798 -0.033069648 -0.036156394
-0.016175888 -0.03348206 -0.036040131
-0.015832111 -0.033164062 -0.036037177
-0.013755273 -0.033068724 -0.036118973
-0.012568116 -0.033026036 -0.036108576
-0.011939666 -0.03308551 -0.036003068
-0.011323357 -0.033331156 -0.036097609
-0.0055798697 -0.033217181 -0.036047302
-0.0042730011 -0.033079945 -0.036035907
-0.00024753524 -0.033272594 -0.036000557
-0.031355832 -0.032849248 -0.036120325
-0.028815273 -0.032897372 -0.036250953
-0.027582914 -0.03297922 -0.036240138
-0.027228905 -0.03274234 -0.036137115
-0.026390996 -0.03278736 -0.03622973
-0.024619322 -0.032659739 -0.036214225
-0.024229581 -0.032985404 -0.036210749
-0.023237068 -0.03299316 -0.036202051
-0.021405695 -0.032891452 -0.036186017
-0.016981784 -0.03293464 -0.036097281
-0.014873197 -0.032572661 -0.036028884
-0.012074067 -0.032698721 -0.03600432
-0.0070415302 -0.032798208 -0.036060181
-0.00090830243 -0.032902248 -0.03600641
-0.030402061 -0.032208525 -0.036264986
-0.029157292 -0.032324918 -0.036154084
-0.028840151 -0.032249011 -0.036251292
-0.028261537 -0.032354832 -0.036246199
-0.024306338 -0.032208741 -0.036111601
-0.023536388 -0.032083757 -0.03610488
-0.021414634 -0.032148384 -0.036086276
-0.016139543 -0.032111984 -0.03604006
-0.014171689 -0.032206111 -0.03612278
-0.013588058 -0.032310888 -0.036117647
-0.012016632 -0.032216996 -0.036003891
-0.011605909 -0.032200936 -0.036000278
-0.0075615593 -0.032277524 -0.036064837
-0.0068403869 -0.03233593 -0.036058497
-0.031062908 -0.031914044 -0.036240943
-0.030109642 -0.031938151 -0.036262471
-0.029313512 -0.031688888 -0.036255542
-0.027065013 -0.031799577 -0.036235817
-0.026343048 -0.031949647 -0.036229461
-0.02383367 -0.03160844 -0.036207531
-0.021033615 -0.03193691 -0.036182933
-0.020239562 -0.031580627 -0.036126062
-0.019916747 -0.031633236 -0.036073245
-0.018806627 -0.031705696 -0.036096822
-0.017131876 -0.03190222 -0.036148749
-0.015905898 -0.031663742 -0.036138073
-0.014697636 -0.031761464 -0.036027491
-0.013491402 -0.031665195 -0.036016934
-0.01281826 -0.031600714 -0.036111027
-0.0089327637 -0.031665016 -0.036076963
-0.0042990935 -0.031876951 -0.036036357
-0.0036026188 -0.031581841 -0.036030289
-0.0031786906 -0.031734318 -0.03602653
-0.0016821807 -0.031653367 -0.036013417
-0.030700685 -0.031048378 -0.036266394
-0.024335263 -0.031187765 -0.036178682
-0.023004407 -0.031095296 -0.036200356
-0.022028036 -0.031140015 -0.036091834
-0.021724246 -0.031339899 -0.036139116
-0.019241819 -0.031071521 -0.036067434
-0.018279562 -0.031197887 -0.036158934
-0.016012773 -0.031234955 -0.03613909
-0.015462963 -0.031036392 -0.03613431
-0.012378452 -0.031277899 -0.036107235
-0.011270197 -0.031232579 -0.036097527
-0.010006573 -0.031347029 -0.036086425
-0.006573264 -0.031117817 -0.036056388
-0.0041668164 -0.031255063 -0.03603531
-0.0030802845 -0.031101467 -0.036025777
-0.030904334 -0.030951796 -0.036152259
-0.03038463 -0.030761547 -0.036265098
-0.027572192 -0.030532653 -0.036140524
-0.027392844 -0.03063871 -0.036238901
-0.02624435 -0.030835189 -0.036228798
-0.022319555 -0.030752763 -0.036144439
-0.018564919 -0.030653451 -0.036061577
-0.017628273 -0.030551836 -0.036053389
-0.016372189 -0.030955035 -0.036142293
-0.015476475 -0.030775059 -0.036134474
-0.012274217 -0.030554002 -0.036006447
-0.0081899529 -0.03061517 -0.036070652
-0.0057454091 -0.030792672 -0.036049198
-0.0044560013 -0.030680934 -0.036037952
-0.003959598 -0.030552618 -0.036033612
-0.0018765725 -0.030912841 -0.03601525
-0.001273375 -0.030954123 -0.036009964
-0.00064720563 -0.030936053 -0.036004484
-0.031855665 -0.030461807 -0.036020633
-0.028652964 -0.030000158 -0.036250055
-0.026819199 -0.030179862 -0.03613399
-0.025447203 -0.030239783 -0.036121957
-0.024549402 -0.030133329 -0.036214072
-0.024215631 -0.030400785 -0.036111135
-0.023086924 -0.030496957 -0.036101229
-0.022516824 -0.030295467 -0.036196232
-0.021856587 -0.030404599 -0.036190424
-0.020612763 -0.030139707 -0.036179572
-0.019075347 -0.030317698 -0.036066111
-0.014765294 -0.030026499 -0.036028396
-0.014197301 -0.030357849 -0.036123347
-0.013481793 -0.030374369 -0.036117073
-0.012186514 -0.030298427 -0.036105733
-0.010056771 -0.030421417 -0.036087036
-0.0097697871 -0.030320868 -0.03608454
-0.0071562091 -0.030056423 -0.036061682
-0.0057276227 -0.030451804 -0.036049105
-0.0039957273 -0.030013949 -0.036034022
-0.0023160963 -0.030419495 -0.036019191
-0.00065889861 -0.030274952 -0.036004711
-0.00036891628 -0.030459706 -0.036002137
-0.032286044 -0.029718392 -0.036014013
-0.03123867 -0.02968739 -0.036195748
-0.028186601 -0.029657621 -0.036146067
-0.027584195 -0.029932149 -0.036240704
-0.026226576 -0.029659402 -0.036128893
-0.025859499 -0.029967528 -0.036125619
-0.025384009 -0.029596239 -0.036121521
-0.019101948 -0.029887961 -0.03606642
-0.017932722 -0.029786021 -0.036056194
-0.01737763 -0.029746979 -0.036101319
-0.016788144 -0.029928159 -0.036046144
-0.015280897 -0.029660048 -0.036132965
-0.014949368 -0.029750377 -0.036030062
-0.013559768 -0.029907795 -0.036117841
-0.013416464 -0.029932788 -0.036116581
-0.011981608 -0.029730227 -0.036004025
-0.0081548234 -0.02964584 -0.036070522
-0.0062629143 -0.029682767 -0.036053937
-0.003293362 -0.02998261 -0.036027849
-0.0025157197 -0.029582005 -0.036021087
-0.0011557556 -0.029561868 -0.036009192
-0.029887691 -0.029031236 -0.036261056
-0.028749447 -0.029274609 -0.036201052
-0.027404958 -0.029256953 -0.036139287
